# .PCD v0.7 - Point Cloud Data file format
VERSION 0.7
FIELDS x y z
SIZE 4 4 4
TYPE F F F
COUNT 1 1 1
WIDTH 2250
HEIGHT 1
VIEWPOINT 0 0 0 1 0 0 0
POINTS 2250
DATA ascii
20.412 5.67 -53.733
20.79 5.67 -53.739
21.168 5.67 -53.769
21.546 5.67 -53.736
21.924 5.67 -53.715
22.302 5.67 -53.667
22.68 5.67 -53.721
23.058 5.67 -54.279
23.436 5.67 -54.45
23.814 5.67 -54.492
24.192 5.67 -54.366
24.57 5.67 -53.829
24.948 5.67 -53.46
25.326 5.67 -53.553
25.704 5.67 -53.568
26.082 5.67 -53.553
26.46 5.67 -53.607
26.838 5.67 -53.706
27.216 5.67 -53.733
27.594 5.67 -53.844
27.972 5.67 -53.919
28.35 5.67 -53.901
28.728 5.67 -53.856
29.106 5.67 -53.883
29.484 5.67 -53.955
29.862 5.67 -53.91
30.24 5.67 -53.799
30.618 5.67 -53.715
30.996 5.67 -53.721
31.374 5.67 -53.805
31.752 5.67 -53.646
11.718 6.048 -53.808
12.096 6.048 -53.631
12.474 6.048 -53.67
12.852 6.048 -53.721
13.23 6.048 -53.796
13.608 6.048 -54.207
18.144 6.048 -54.087
18.522 6.048 -54.006
18.9 6.048 -53.601
19.278 6.048 -53.625
19.656 6.048 -53.67
20.034 6.048 -53.73
20.412 6.048 -53.778
20.79 6.048 -53.799
21.168 6.048 -53.778
21.546 6.048 -53.892
21.924 6.048 -54.048
26.082 6.048 -53.484
26.46 6.048 -53.55
26.838 6.048 -53.634
27.216 6.048 -53.727
27.594 6.048 -53.757
27.972 6.048 -53.814
28.35 6.048 -53.841
28.728 6.048 -53.838
29.106 6.048 -53.853
29.484 6.048 -53.889
29.862 6.048 -53.823
30.24 6.048 -53.793
30.618 6.048 -53.748
30.996 6.048 -53.697
31.374 6.048 -53.724
31.752 6.048 -53.697
11.718 6.426 -53.805
12.096 6.426 -53.631
12.474 6.426 -53.694
12.852 6.426 -53.745
13.23 6.426 -53.736
13.608 6.426 -54.018
17.766 6.426 -54.105
18.144 6.426 -53.742
18.522 6.426 -53.652
18.9 6.426 -53.619
19.278 6.426 -53.664
19.656 6.426 -53.709
20.034 6.426 -53.754
20.412 6.426 -53.799
20.79 6.426 -53.838
21.168 6.426 -53.835
26.082 6.426 -53.562
26.46 6.426 -53.535
26.838 6.426 -53.583
27.216 6.426 -53.685
27.594 6.426 -53.673
27.972 6.426 -53.733
28.35 6.426 -53.793
28.728 6.426 -53.826
29.106 6.426 -53.835
29.484 6.426 -53.823
29.862 6.426 -53.766
30.24 6.426 -53.793
30.618 6.426 -53.781
30.996 6.426 -53.73
31.374 6.426 -53.694
31.752 6.426 -53.733
11.718 6.804 -54.27
12.096 6.804 -53.772
12.474 6.804 -53.784
12.852 6.804 -53.772
13.23 6.804 -53.694
13.608 6.804 -53.691
17.766 6.804 -53.922
18.144 6.804 -53.562
18.522 6.804 -53.616
18.9 6.804 -53.637
19.278 6.804 -53.688
19.656 6.804 -53.766
20.034 6.804 -53.784
20.412 6.804 -53.739
20.79 6.804 -53.712
21.168 6.804 -53.979
26.46 6.804 -53.592
26.838 6.804 -53.58
27.216 6.804 -53.61
27.594 6.804 -53.637
27.972 6.804 -53.745
28.35 6.804 -53.778
28.728 6.804 -53.778
29.106 6.804 -53.805
29.484 6.804 -53.766
29.862 6.804 -53.775
30.24 6.804 -53.763
30.618 6.804 -53.769
30.996 6.804 -53.778
31.374 6.804 -53.73
31.752 6.804 -53.718
12.096 7.182 -53.712
12.474 7.182 -53.706
12.852 7.182 -53.703
13.23 7.182 -53.655
13.608 7.182 -53.607
13.986 7.182 -53.658
14.364 7.182 -53.955
14.742 7.182 -54.336
17.01 7.182 -53.76
17.388 7.182 -53.814
17.766 7.182 -53.766
18.144 7.182 -53.682
18.522 7.182 -53.652
18.9 7.182 -53.661
19.278 7.182 -53.679
19.656 7.182 -53.718
20.034 7.182 -53.703
20.412 7.182 -53.679
20.79 7.182 -53.79
21.168 7.182 -54.369
26.46 7.182 -53.997
26.838 7.182 -53.703
27.216 7.182 -53.694
27.594 7.182 -53.679
27.972 7.182 -53.7
28.35 7.182 -53.721
28.728 7.182 -53.736
29.106 7.182 -53.757
29.484 7.182 -53.775
29.862 7.182 -53.808
30.24 7.182 -53.796
30.618 7.182 -53.754
30.996 7.182 -53.706
31.374 7.182 -53.682
31.752 7.182 -53.691
12.096 7.56 -53.679
12.474 7.56 -53.688
12.852 7.56 -53.724
13.23 7.56 -53.727
13.608 7.56 -53.712
13.986 7.56 -53.697
14.364 7.56 -53.697
14.742 7.56 -54.012
16.254 7.56 -53.934
16.632 7.56 -53.709
17.01 7.56 -53.604
17.388 7.56 -53.631
17.766 7.56 -53.706
18.144 7.56 -53.742
18.522 7.56 -53.7
18.9 7.56 -53.697
19.278 7.56 -53.736
19.656 7.56 -53.763
20.034 7.56 -53.739
20.412 7.56 -53.7
26.838 7.56 -53.757
27.216 7.56 -53.733
27.594 7.56 -53.721
27.972 7.56 -53.727
28.35 7.56 -53.76
28.728 7.56 -53.79
29.106 7.56 -53.793
29.484 7.56 -53.787
29.862 7.56 -53.808
30.24 7.56 -53.793
30.618 7.56 -53.748
30.996 7.56 -53.688
31.374 7.56 -53.655
31.752 7.56 -53.643
32.13 7.56 -54.405
12.096 7.938 -53.76
12.474 7.938 -53.784
12.852 7.938 -53.874
13.23 7.938 -53.94
13.608 7.938 -53.997
13.986 7.938 -54.009
14.364 7.938 -53.88
14.742 7.938 -53.769
15.12 7.938 -53.637
15.498 7.938 -53.529
15.876 7.938 -53.487
16.254 7.938 -53.526
16.632 7.938 -53.61
17.01 7.938 -53.688
17.388 7.938 -53.727
17.766 7.938 -53.757
18.144 7.938 -53.775
18.522 7.938 -53.766
18.9 7.938 -53.751
19.278 7.938 -53.832
19.656 7.938 -53.862
20.034 7.938 -53.838
20.412 7.938 -53.772
27.216 7.938 -53.736
27.594 7.938 -53.736
27.972 7.938 -53.763
28.35 7.938 -53.805
28.728 7.938 -53.85
29.106 7.938 -53.859
29.484 7.938 -53.793
29.862 7.938 -53.781
30.24 7.938 -53.778
30.618 7.938 -53.748
30.996 7.938 -53.697
31.374 7.938 -53.643
31.752 7.938 -53.622
32.13 7.938 -54.291
12.096 8.316 -53.775
12.474 8.316 -53.715
12.852 8.316 -53.844
13.23 8.316 -53.946
13.608 8.316 -53.943
13.986 8.316 -53.889
14.364 8.316 -53.895
14.742 8.316 -53.856
15.12 8.316 -53.871
15.498 8.316 -53.847
15.876 8.316 -53.775
16.254 8.316 -53.751
16.632 8.316 -53.916
17.01 8.316 -53.937
17.388 8.316 -53.913
17.766 8.316 -53.907
18.144 8.316 -53.916
18.522 8.316 -53.886
18.9 8.316 -53.823
19.278 8.316 -53.883
19.656 8.316 -53.844
20.034 8.316 -53.76
20.412 8.316 -53.757
27.216 8.316 -53.691
27.594 8.316 -53.679
27.972 8.316 -53.721
28.35 8.316 -53.751
28.728 8.316 -53.82
29.106 8.316 -53.895
29.484 8.316 -53.772
29.862 8.316 -53.73
30.24 8.316 -53.784
30.618 8.316 -53.769
30.996 8.316 -53.697
31.374 8.316 -53.667
31.752 8.316 -53.655
32.13 8.316 -54.066
12.852 8.694 -53.841
13.23 8.694 -53.889
13.608 8.694 -53.886
13.986 8.694 -53.874
14.364 8.694 -53.907
14.742 8.694 -53.874
15.12 8.694 -53.856
15.498 8.694 -53.805
15.876 8.694 -53.742
16.254 8.694 -53.751
16.632 8.694 -53.922
17.01 8.694 -53.937
17.388 8.694 -53.937
17.766 8.694 -53.94
18.144 8.694 -53.943
18.522 8.694 -53.934
18.9 8.694 -53.928
19.278 8.694 -53.901
19.656 8.694 -53.832
20.034 8.694 -53.721
27.216 8.694 -53.646
27.594 8.694 -53.667
27.972 8.694 -53.709
28.35 8.694 -53.733
28.728 8.694 -53.76
29.106 8.694 -53.796
29.484 8.694 -53.796
29.862 8.694 -53.751
30.24 8.694 -53.769
30.618 8.694 -53.772
30.996 8.694 -53.76
31.374 8.694 -53.772
31.752 8.694 -53.727
32.13 8.694 -53.916
12.852 9.072 -53.85
13.23 9.072 -53.826
13.608 9.072 -53.85
13.986 9.072 -53.904
14.364 9.072 -53.919
14.742 9.072 -53.928
15.12 9.072 -53.853
15.498 9.072 -53.778
15.876 9.072 -53.766
16.254 9.072 -53.823
16.632 9.072 -53.919
17.01 9.072 -53.913
17.388 9.072 -53.928
17.766 9.072 -53.949
18.144 9.072 -53.955
18.522 9.072 -53.955
18.9 9.072 -54.003
19.278 9.072 -53.907
19.656 9.072 -53.817
20.034 9.072 -53.73
27.216 9.072 -53.637
27.594 9.072 -53.694
27.972 9.072 -53.748
28.35 9.072 -53.757
28.728 9.072 -53.742
29.106 9.072 -53.739
29.484 9.072 -53.745
29.862 9.072 -53.751
30.24 9.072 -53.712
30.618 9.072 -53.709
30.996 9.072 -53.733
31.374 9.072 -53.745
31.752 9.072 -53.706
12.852 9.45 -53.829
13.23 9.45 -53.832
13.608 9.45 -53.844
13.986 9.45 -53.856
14.364 9.45 -53.898
14.742 9.45 -54.162
15.12 9.45 -54.078
15.498 9.45 -53.985
15.876 9.45 -53.997
16.254 9.45 -54.075
16.632 9.45 -54.057
17.01 9.45 -53.967
17.388 9.45 -53.964
17.766 9.45 -54.003
18.144 9.45 -54.018
18.522 9.45 -53.979
18.9 9.45 -54.018
19.278 9.45 -53.892
19.656 9.45 -53.793
20.034 9.45 -53.787
20.412 9.45 -53.865
27.216 9.45 -53.661
27.594 9.45 -53.739
27.972 9.45 -53.817
28.35 9.45 -53.805
28.728 9.45 -53.757
29.106 9.45 -53.751
29.484 9.45 -53.721
29.862 9.45 -53.775
30.24 9.45 -53.673
30.618 9.45 -53.64
30.996 9.45 -53.664
31.374 9.45 -53.643
31.752 9.45 -53.652
12.474 9.828 -53.694
12.852 9.828 -53.763
13.23 9.828 -53.841
13.608 9.828 -53.877
13.986 9.828 -53.916
14.364 9.828 -54.054
14.742 9.828 -54.234
15.12 9.828 -54.195
15.498 9.828 -54.153
15.876 9.828 -54.192
16.254 9.828 -54.261
16.632 9.828 -54.168
17.01 9.828 -54.126
17.388 9.828 -54.033
17.766 9.828 -54.003
18.144 9.828 -53.979
18.522 9.828 -53.886
18.9 9.828 -53.916
19.278 9.828 -53.868
19.656 9.828 -53.808
20.034 9.828 -53.745
20.412 9.828 -53.661
27.216 9.828 -53.661
27.594 9.828 -53.739
27.972 9.828 -53.835
28.35 9.828 -53.793
28.728 9.828 -53.772
29.106 9.828 -53.895
29.484 9.828 -53.988
29.862 9.828 -53.952
30.24 9.828 -53.784
30.618 9.828 -53.715
30.996 9.828 -53.721
31.374 9.828 -53.67
31.752 9.828 -53.709
12.852 10.206 -53.757
13.23 10.206 -53.802
13.608 10.206 -53.871
13.986 10.206 -53.931
14.364 10.206 -54.075
14.742 10.206 -54.195
15.12 10.206 -54.24
15.498 10.206 -54.282
15.876 10.206 -54.309
16.254 10.206 -54.306
16.632 10.206 -54.348
17.01 10.206 -54.258
17.388 10.206 -54.09
17.766 10.206 -53.988
18.144 10.206 -53.934
18.522 10.206 -53.865
18.9 10.206 -53.88
19.278 10.206 -53.829
19.656 10.206 -53.82
20.034 10.206 -53.808
20.412 10.206 -53.751
26.46 10.206 -54.093
26.838 10.206 -53.718
27.216 10.206 -53.721
27.594 10.206 -53.718
27.972 10.206 -53.799
28.35 10.206 -53.829
28.728 10.206 -53.838
29.106 10.206 -53.877
29.484 10.206 -53.946
29.862 10.206 -53.838
30.24 10.206 -53.796
30.618 10.206 -53.757
30.996 10.206 -53.709
31.374 10.206 -53.667
31.752 10.206 -53.637
12.852 10.584 -53.808
13.23 10.584 -53.76
13.608 10.584 -53.853
13.986 10.584 -53.931
14.364 10.584 -54
14.742 10.584 -54.087
15.12 10.584 -54.219
15.498 10.584 -54.363
15.876 10.584 -54.33
16.254 10.584 -54.192
16.632 10.584 -54.582
17.01 10.584 -54.291
17.388 10.584 -54.051
17.766 10.584 -53.922
18.144 10.584 -53.874
18.522 10.584 -53.874
18.9 10.584 -53.883
19.278 10.584 -53.778
19.656 10.584 -53.805
20.034 10.584 -53.868
20.412 10.584 -53.88
20.79 10.584 -53.799
21.168 10.584 -53.64
26.46 10.584 -53.796
26.838 10.584 -53.721
27.216 10.584 -53.739
27.594 10.584 -53.712
27.972 10.584 -53.778
28.35 10.584 -53.85
28.728 10.584 -53.874
29.106 10.584 -53.841
29.484 10.584 -53.823
29.862 10.584 -53.76
30.24 10.584 -53.787
30.618 10.584 -53.772
30.996 10.584 -53.724
31.374 10.584 -53.703
31.752 10.584 -53.697
12.852 10.962 -53.91
13.23 10.962 -53.856
13.608 10.962 -53.976
13.986 10.962 -54.06
14.364 10.962 -54.093
14.742 10.962 -54.21
15.12 10.962 -54.255
15.498 10.962 -54.264
15.876 10.962 -54.219
16.254 10.962 -54.102
16.632 10.962 -53.868
17.01 10.962 -53.622
17.388 10.962 -53.583
17.766 10.962 -53.631
18.144 10.962 -53.718
18.522 10.962 -53.811
18.9 10.962 -53.88
19.278 10.962 -53.709
19.656 10.962 -53.721
20.034 10.962 -53.733
20.412 10.962 -53.691
20.79 10.962 -53.658
21.168 10.962 -53.496
26.082 10.962 -53.703
26.46 10.962 -53.538
26.838 10.962 -53.628
27.216 10.962 -53.667
27.594 10.962 -53.754
27.972 10.962 -53.811
28.35 10.962 -53.829
28.728 10.962 -53.844
29.106 10.962 -53.862
29.484 10.962 -53.799
29.862 10.962 -53.832
30.24 10.962 -53.775
30.618 10.962 -53.751
30.996 10.962 -53.778
31.374 10.962 -53.781
13.23 11.34 -53.823
13.608 11.34 -53.91
13.986 11.34 -53.994
14.364 11.34 -54.084
14.742 11.34 -54.123
15.12 11.34 -54.186
15.498 11.34 -54.21
15.876 11.34 -54.192
16.254 11.34 -54.123
16.632 11.34 -53.982
17.01 11.34 -53.943
17.388 11.34 -53.844
17.766 11.34 -53.772
18.144 11.34 -53.712
18.522 11.34 -53.649
18.9 11.34 -53.616
19.278 11.34 -53.562
19.656 11.34 -53.511
20.034 11.34 -53.499
20.412 11.34 -53.487
20.79 11.34 -53.457
21.168 11.34 -53.46
21.546 11.34 -53.658
21.924 11.34 -53.736
22.302 11.34 -53.76
26.082 11.34 -53.865
26.46 11.34 -53.697
26.838 11.34 -53.733
27.216 11.34 -53.67
27.594 11.34 -53.706
27.972 11.34 -53.763
28.35 11.34 -53.781
28.728 11.34 -53.775
29.106 11.34 -53.778
29.484 11.34 -53.766
29.862 11.34 -53.865
30.24 11.34 -53.772
30.618 11.34 -53.721
30.996 11.34 -53.763
31.374 11.34 -53.802
13.23 11.718 -53.775
13.608 11.718 -53.829
13.986 11.718 -53.919
14.364 11.718 -54.021
14.742 11.718 -54.027
15.12 11.718 -54.102
15.498 11.718 -54.174
15.876 11.718 -54.165
16.254 11.718 -54.066
16.632 11.718 -54.003
17.01 11.718 -54.078
17.388 11.718 -54.015
17.766 11.718 -53.853
18.144 11.718 -53.67
18.522 11.718 -53.541
18.9 11.718 -53.493
19.278 11.718 -53.505
19.656 11.718 -53.481
20.034 11.718 -53.469
20.412 11.718 -53.478
20.79 11.718 -53.499
21.168 11.718 -53.538
21.546 11.718 -53.631
21.924 11.718 -53.658
22.302 11.718 -53.616
22.68 11.718 -53.607
26.838 11.718 -53.652
27.216 11.718 -53.712
27.594 11.718 -53.721
27.972 11.718 -53.754
28.35 11.718 -53.772
28.728 11.718 -53.787
29.106 11.718 -53.808
29.484 11.718 -53.82
29.862 11.718 -53.862
30.24 11.718 -53.781
30.618 11.718 -53.715
30.996 11.718 -53.715
31.374 11.718 -53.745
13.23 12.096 -53.763
13.608 12.096 -53.796
13.986 12.096 -53.913
14.364 12.096 -53.925
14.742 12.096 -54.015
15.12 12.096 -54.039
15.498 12.096 -54.144
15.876 12.096 -54.105
16.254 12.096 -53.889
16.632 12.096 -53.79
17.01 12.096 -53.802
17.388 12.096 -53.826
17.766 12.096 -53.736
18.144 12.096 -53.583
18.522 12.096 -53.49
18.9 12.096 -53.49
19.278 12.096 -53.517
19.656 12.096 -53.559
20.034 12.096 -53.571
20.412 12.096 -53.592
20.79 12.096 -53.661
21.168 12.096 -53.664
21.546 12.096 -53.655
21.924 12.096 -53.619
22.302 12.096 -53.577
22.68 12.096 -53.568
23.058 12.096 -53.67
23.436 12.096 -54.219
26.838 12.096 -53.715
27.216 12.096 -53.748
27.594 12.096 -53.754
27.972 12.096 -53.766
28.35 12.096 -53.784
28.728 12.096 -53.811
29.106 12.096 -53.829
29.484 12.096 -53.865
29.862 12.096 -53.817
30.24 12.096 -53.778
30.618 12.096 -53.718
30.996 12.096 -53.679
31.374 12.096 -53.718
13.23 12.474 -53.955
13.608 12.474 -53.781
13.986 12.474 -53.832
14.364 12.474 -53.895
14.742 12.474 -53.916
15.12 12.474 -53.919
15.498 12.474 -53.886
15.876 12.474 -53.85
16.254 12.474 -53.823
16.632 12.474 -53.784
17.01 12.474 -53.637
17.388 12.474 -53.718
17.766 12.474 -53.721
18.144 12.474 -53.622
18.522 12.474 -53.499
18.9 12.474 -53.436
19.278 12.474 -53.517
19.656 12.474 -53.547
20.034 12.474 -53.613
20.412 12.474 -53.7
20.79 12.474 -53.751
21.168 12.474 -53.76
21.546 12.474 -53.706
21.924 12.474 -53.715
22.302 12.474 -53.727
22.68 12.474 -53.673
23.058 12.474 -53.574
23.436 12.474 -53.841
26.838 12.474 -54.318
27.216 12.474 -53.724
27.594 12.474 -53.709
27.972 12.474 -53.754
28.35 12.474 -53.79
28.728 12.474 -53.775
29.106 12.474 -53.706
29.484 12.474 -53.757
29.862 12.474 -53.718
30.24 12.474 -53.736
30.618 12.474 -53.703
30.996 12.474 -53.691
31.374 12.474 -53.799
13.608 12.852 -53.745
13.986 12.852 -53.787
14.364 12.852 -53.877
14.742 12.852 -53.871
15.12 12.852 -53.895
15.498 12.852 -53.847
15.876 12.852 -53.82
16.254 12.852 -53.847
16.632 12.852 -53.85
17.01 12.852 -53.736
17.388 12.852 -53.778
17.766 12.852 -53.784
18.144 12.852 -53.709
18.522 12.852 -53.598
18.9 12.852 -53.571
19.278 12.852 -53.664
19.656 12.852 -53.688
20.034 12.852 -53.7
20.412 12.852 -53.718
20.79 12.852 -53.751
21.168 12.852 -53.784
21.546 12.852 -53.745
21.924 12.852 -53.742
22.302 12.852 -53.757
22.68 12.852 -53.727
23.058 12.852 -53.58
23.436 12.852 -53.724
26.838 12.852 -54.225
27.216 12.852 -53.694
27.594 12.852 -53.733
27.972 12.852 -53.715
28.35 12.852 -53.766
28.728 12.852 -53.802
29.106 12.852 -53.784
29.484 12.852 -53.826
29.862 12.852 -53.763
30.24 12.852 -53.772
30.618 12.852 -53.781
30.996 12.852 -53.766
31.374 12.852 -53.736
13.608 13.23 -53.721
13.986 13.23 -53.748
14.364 13.23 -53.838
14.742 13.23 -53.841
15.12 13.23 -53.883
15.498 13.23 -53.871
15.876 13.23 -53.865
16.254 13.23 -53.895
16.632 13.23 -53.916
17.01 13.23 -53.841
17.388 13.23 -53.832
17.766 13.23 -53.796
18.144 13.23 -53.724
18.522 13.23 -53.655
18.9 13.23 -53.637
19.278 13.23 -53.691
19.656 13.23 -53.709
20.034 13.23 -53.703
20.412 13.23 -53.7
20.79 13.23 -53.727
21.168 13.23 -53.769
21.546 13.23 -53.745
21.924 13.23 -53.691
22.302 13.23 -53.697
22.68 13.23 -53.724
23.058 13.23 -53.649
23.436 13.23 -53.718
26.838 13.23 -53.862
27.216 13.23 -53.73
27.594 13.23 -53.739
27.972 13.23 -53.742
28.35 13.23 -53.787
28.728 13.23 -53.826
29.106 13.23 -53.838
29.484 13.23 -53.871
29.862 13.23 -53.808
30.24 13.23 -53.823
30.618 13.23 -53.832
30.996 13.23 -53.796
31.374 13.23 -53.73
13.608 13.608 -53.73
13.986 13.608 -53.685
14.364 13.608 -53.739
14.742 13.608 -53.787
15.12 13.608 -53.787
15.498 13.608 -53.823
15.876 13.608 -53.871
16.254 13.608 -53.907
16.632 13.608 -53.928
17.01 13.608 -53.862
17.388 13.608 -53.814
17.766 13.608 -53.709
18.144 13.608 -53.619
18.522 13.608 -53.589
18.9 13.608 -53.526
19.278 13.608 -53.514
19.656 13.608 -53.538
20.034 13.608 -53.601
20.412 13.608 -53.664
20.79 13.608 -53.712
21.168 13.608 -53.733
21.546 13.608 -53.694
21.924 13.608 -53.595
22.302 13.608 -53.574
22.68 13.608 -53.655
23.058 13.608 -53.757
23.436 13.608 -53.766
26.838 13.608 -53.505
27.216 13.608 -53.781
27.594 13.608 -53.73
27.972 13.608 -53.808
28.35 13.608 -53.835
28.728 13.608 -53.838
29.106 13.608 -53.865
29.484 13.608 -53.886
29.862 13.608 -53.841
30.24 13.608 -53.862
30.618 13.608 -53.847
30.996 13.608 -53.784
31.374 13.608 -53.73
13.608 13.986 -53.964
13.986 13.986 -53.745
14.364 13.986 -53.775
14.742 13.986 -53.826
15.12 13.986 -53.805
15.498 13.986 -53.859
15.876 13.986 -53.901
16.254 13.986 -53.901
16.632 13.986 -53.931
17.01 13.986 -53.946
17.388 13.986 -53.907
17.766 13.986 -53.811
18.144 13.986 -53.691
18.522 13.986 -53.598
18.9 13.986 -53.592
19.278 13.986 -53.61
19.656 13.986 -53.64
20.034 13.986 -53.676
20.412 13.986 -53.697
20.79 13.986 -53.694
21.168 13.986 -53.646
21.546 13.986 -53.715
21.924 13.986 -53.778
22.302 13.986 -53.751
22.68 13.986 -53.661
23.058 13.986 -53.733
23.436 13.986 -53.745
26.838 13.986 -53.673
27.216 13.986 -53.721
27.594 13.986 -53.745
27.972 13.986 -53.79
28.35 13.986 -53.802
28.728 13.986 -53.811
29.106 13.986 -53.85
29.484 13.986 -53.826
29.862 13.986 -53.823
30.24 13.986 -53.817
30.618 13.986 -53.784
30.996 13.986 -53.706
31.374 13.986 -53.601
13.986 14.364 -53.748
14.364 14.364 -53.799
14.742 14.364 -53.838
15.12 14.364 -53.838
15.498 14.364 -53.847
15.876 14.364 -53.856
16.254 14.364 -53.865
16.632 14.364 -53.88
17.01 14.364 -53.949
17.388 14.364 -53.949
17.766 14.364 -53.883
18.144 14.364 -53.769
18.522 14.364 -53.646
18.9 14.364 -53.616
19.278 14.364 -53.643
19.656 14.364 -53.649
20.034 14.364 -53.688
20.412 14.364 -53.721
20.79 14.364 -53.685
21.168 14.364 -53.658
21.546 14.364 -53.697
21.924 14.364 -53.766
22.302 14.364 -53.775
22.68 14.364 -53.721
23.058 14.364 -53.766
23.436 14.364 -53.778
23.814 14.364 -54.129
26.838 14.364 -54.147
27.216 14.364 -53.85
27.594 14.364 -53.664
27.972 14.364 -53.688
28.35 14.364 -53.742
28.728 14.364 -53.796
29.106 14.364 -53.832
29.484 14.364 -53.76
29.862 14.364 -53.76
30.24 14.364 -53.769
30.618 14.364 -53.784
30.996 14.364 -53.772
31.374 14.364 -53.688
31.752 14.364 -53.616
13.986 14.742 -53.721
14.364 14.742 -53.802
14.742 14.742 -53.808
15.12 14.742 -53.868
15.498 14.742 -53.817
15.876 14.742 -53.79
16.254 14.742 -53.832
16.632 14.742 -53.814
17.01 14.742 -53.883
17.388 14.742 -53.937
17.766 14.742 -53.922
18.144 14.742 -53.835
18.522 14.742 -53.715
18.9 14.742 -53.607
19.278 14.742 -53.616
19.656 14.742 -53.595
20.034 14.742 -53.646
20.412 14.742 -53.706
20.79 14.742 -53.676
21.168 14.742 -53.703
21.546 14.742 -53.682
21.924 14.742 -53.7
22.302 14.742 -53.73
22.68 14.742 -53.745
23.058 14.742 -53.757
23.436 14.742 -53.793
23.814 14.742 -54
27.972 14.742 -53.643
28.35 14.742 -53.679
28.728 14.742 -53.763
29.106 14.742 -53.802
29.484 14.742 -53.742
29.862 14.742 -53.745
30.24 14.742 -53.757
30.618 14.742 -53.793
30.996 14.742 -53.808
31.374 14.742 -53.742
31.752 14.742 -53.67
13.986 15.12 -53.724
14.364 15.12 -53.766
14.742 15.12 -53.745
15.12 15.12 -53.88
15.498 15.12 -53.877
15.876 15.12 -53.865
16.254 15.12 -53.889
16.632 15.12 -53.835
17.01 15.12 -53.856
17.388 15.12 -53.901
17.766 15.12 -53.895
18.144 15.12 -53.862
18.522 15.12 -53.796
18.9 15.12 -53.574
19.278 15.12 -53.526
19.656 15.12 -53.523
20.034 15.12 -53.553
20.412 15.12 -53.601
20.79 15.12 -53.661
21.168 15.12 -53.745
21.546 15.12 -53.718
21.924 15.12 -53.715
22.302 15.12 -53.691
22.68 15.12 -53.625
23.058 15.12 -53.607
23.436 15.12 -53.718
23.814 15.12 -53.952
28.35 15.12 -53.652
28.728 15.12 -53.712
29.106 15.12 -53.76
29.484 15.12 -53.799
29.862 15.12 -53.799
30.24 15.12 -53.79
30.618 15.12 -53.784
30.996 15.12 -53.778
31.374 15.12 -53.754
31.752 15.12 -53.739
32.13 15.12 -53.856
13.986 15.498 -53.76
14.364 15.498 -53.784
14.742 15.498 -53.757
15.12 15.498 -53.877
15.498 15.498 -53.892
15.876 15.498 -53.886
16.254 15.498 -53.901
16.632 15.498 -53.865
17.01 15.498 -53.853
17.388 15.498 -53.883
17.766 15.498 -53.871
18.144 15.498 -53.847
18.522 15.498 -53.847
18.9 15.498 -53.748
19.278 15.498 -53.676
19.656 15.498 -53.682
20.034 15.498 -53.688
20.412 15.498 -53.676
20.79 15.498 -53.667
21.168 15.498 -53.742
21.546 15.498 -53.76
21.924 15.498 -53.736
22.302 15.498 -53.685
22.68 15.498 -53.637
23.058 15.498 -53.67
23.436 15.498 -53.718
23.814 15.498 -53.877
28.35 15.498 -53.862
28.728 15.498 -53.667
29.106 15.498 -53.718
29.484 15.498 -53.766
29.862 15.498 -53.763
30.24 15.498 -53.799
30.618 15.498 -53.805
30.996 15.498 -53.784
31.374 15.498 -53.781
31.752 15.498 -53.766
32.13 15.498 -53.301
13.986 15.876 -53.817
14.364 15.876 -53.799
14.742 15.876 -53.799
15.12 15.876 -53.856
15.498 15.876 -53.874
15.876 15.876 -53.886
16.254 15.876 -53.901
16.632 15.876 -53.877
17.01 15.876 -53.88
17.388 15.876 -53.874
17.766 15.876 -53.865
18.144 15.876 -53.859
18.522 15.876 -53.853
18.9 15.876 -53.829
19.278 15.876 -53.754
19.656 15.876 -53.772
20.034 15.876 -53.757
20.412 15.876 -53.697
20.79 15.876 -53.655
21.168 15.876 -53.691
21.546 15.876 -53.721
21.924 15.876 -53.709
22.302 15.876 -53.694
22.68 15.876 -53.703
23.058 15.876 -53.736
23.436 15.876 -53.733
23.814 15.876 -53.832
24.192 15.876 -54.3
28.728 15.876 -53.709
29.106 15.876 -53.745
29.484 15.876 -53.811
29.862 15.876 -53.757
30.24 15.876 -53.724
30.618 15.876 -53.751
30.996 15.876 -53.787
31.374 15.876 -53.787
31.752 15.876 -53.772
32.13 15.876 -53.514
13.986 16.254 -53.898
14.364 16.254 -53.781
14.742 16.254 -53.844
15.12 16.254 -53.82
15.498 16.254 -53.823
15.876 16.254 -53.871
16.254 16.254 -53.907
16.632 16.254 -53.865
17.01 16.254 -53.922
17.388 16.254 -53.883
17.766 16.254 -53.889
18.144 16.254 -53.895
18.522 16.254 -53.835
18.9 16.254 -53.778
19.278 16.254 -53.742
19.656 16.254 -53.784
20.034 16.254 -53.757
20.412 16.254 -53.676
20.79 16.254 -53.649
21.168 16.254 -53.664
21.546 16.254 -53.661
21.924 16.254 -53.679
22.302 16.254 -53.724
22.68 16.254 -53.778
23.058 16.254 -53.787
23.436 16.254 -53.73
23.814 16.254 -53.787
24.192 16.254 -54.186
28.728 16.254 -53.769
29.106 16.254 -53.787
29.484 16.254 -53.865
29.862 16.254 -53.769
30.24 16.254 -53.712
30.618 16.254 -53.754
30.996 16.254 -53.808
31.374 16.254 -53.79
31.752 16.254 -53.76
32.13 16.254 -53.649
13.986 16.632 -53.733
14.364 16.632 -53.733
14.742 16.632 -53.766
15.12 16.632 -53.826
15.498 16.632 -53.847
15.876 16.632 -53.871
16.254 16.632 -53.907
16.632 16.632 -53.916
17.01 16.632 -53.931
17.388 16.632 -53.916
17.766 16.632 -53.913
18.144 16.632 -53.916
18.522 16.632 -53.901
18.9 16.632 -53.805
19.278 16.632 -53.787
19.656 16.632 -53.742
20.034 16.632 -53.682
20.412 16.632 -53.667
20.79 16.632 -53.733
21.168 16.632 -53.808
21.546 16.632 -53.748
21.924 16.632 -53.754
22.302 16.632 -53.781
22.68 16.632 -53.781
23.058 16.632 -53.76
23.436 16.632 -53.628
23.814 16.632 -53.625
24.192 16.632 -54.021
28.728 16.632 -53.796
29.106 16.632 -53.796
29.484 16.632 -53.865
29.862 16.632 -53.799
30.24 16.632 -53.865
30.618 16.632 -53.898
30.996 16.632 -53.865
31.374 16.632 -53.808
31.752 16.632 -53.718
32.13 16.632 -53.688
32.508 16.632 -53.868
13.986 17.01 -53.973
14.364 17.01 -53.76
14.742 17.01 -53.754
15.12 17.01 -53.775
15.498 17.01 -53.82
15.876 17.01 -53.853
16.254 17.01 -53.88
16.632 17.01 -53.901
17.01 17.01 -53.907
17.388 17.01 -53.901
17.766 17.01 -53.91
18.144 17.01 -53.913
18.522 17.01 -53.871
18.9 17.01 -53.817
19.278 17.01 -53.802
19.656 17.01 -53.73
20.034 17.01 -53.643
20.412 17.01 -53.637
20.79 17.01 -53.751
21.168 17.01 -53.811
21.546 17.01 -53.745
21.924 17.01 -53.727
22.302 17.01 -53.745
22.68 17.01 -53.763
23.058 17.01 -53.718
23.436 17.01 -53.712
23.814 17.01 -53.751
24.192 17.01 -53.961
28.728 17.01 -53.757
29.106 17.01 -53.787
29.484 17.01 -53.835
29.862 17.01 -53.757
30.24 17.01 -53.805
30.618 17.01 -53.829
30.996 17.01 -53.832
31.374 17.01 -53.865
31.752 17.01 -53.817
32.13 17.01 -53.748
32.508 17.01 -53.88
14.364 17.388 -53.802
14.742 17.388 -53.781
15.12 17.388 -53.781
15.498 17.388 -53.823
15.876 17.388 -53.853
16.254 17.388 -53.859
16.632 17.388 -53.877
17.01 17.388 -53.886
17.388 17.388 -53.886
17.766 17.388 -53.901
18.144 17.388 -53.904
18.522 17.388 -53.862
18.9 17.388 -53.838
19.278 17.388 -53.811
19.656 17.388 -53.766
20.034 17.388 -53.712
20.412 17.388 -53.691
20.79 17.388 -53.733
21.168 17.388 -53.748
21.546 17.388 -53.712
21.924 17.388 -53.703
22.302 17.388 -53.727
22.68 17.388 -53.757
23.058 17.388 -53.766
23.436 17.388 -53.748
23.814 17.388 -53.766
24.192 17.388 -53.88
28.728 17.388 -53.742
29.106 17.388 -53.781
29.484 17.388 -53.787
29.862 17.388 -53.745
30.24 17.388 -53.778
30.618 17.388 -53.817
30.996 17.388 -53.82
31.374 17.388 -53.79
31.752 17.388 -53.745
32.13 17.388 -53.703
32.508 17.388 -53.838
14.364 17.766 -53.787
14.742 17.766 -53.835
15.12 17.766 -53.925
15.498 17.766 -53.952
15.876 17.766 -53.928
16.254 17.766 -53.901
16.632 17.766 -53.901
17.01 17.766 -53.901
17.388 17.766 -53.91
17.766 17.766 -53.904
18.144 17.766 -53.898
18.522 17.766 -53.913
18.9 17.766 -53.874
19.278 17.766 -53.82
19.656 17.766 -53.856
20.034 17.766 -53.877
20.412 17.766 -53.829
20.79 17.766 -53.715
21.168 17.766 -53.694
21.546 17.766 -53.691
21.924 17.766 -53.721
22.302 17.766 -53.748
22.68 17.766 -53.778
23.058 17.766 -53.901
23.436 17.766 -53.73
23.814 17.766 -53.685
24.192 17.766 -53.772
28.35 17.766 -53.622
28.728 17.766 -53.736
29.106 17.766 -53.778
29.484 17.766 -53.742
29.862 17.766 -53.778
30.24 17.766 -53.805
30.618 17.766 -53.853
30.996 17.766 -53.835
31.374 17.766 -53.679
31.752 17.766 -53.658
32.13 17.766 -53.658
32.508 17.766 -53.778
14.364 18.144 -53.772
14.742 18.144 -53.787
15.12 18.144 -53.802
15.498 18.144 -53.829
15.876 18.144 -53.88
16.254 18.144 -53.925
16.632 18.144 -53.934
17.01 18.144 -53.889
17.388 18.144 -53.907
17.766 18.144 -53.904
18.144 18.144 -53.877
18.522 18.144 -53.85
18.9 18.144 -53.859
19.278 18.144 -53.739
19.656 18.144 -53.667
20.034 18.144 -53.703
20.412 18.144 -53.778
20.79 18.144 -53.781
21.168 18.144 -53.76
21.546 18.144 -53.814
21.924 18.144 -53.82
22.302 18.144 -53.799
22.68 18.144 -53.79
23.058 18.144 -53.835
23.436 18.144 -53.838
23.814 18.144 -53.841
24.192 18.144 -53.859
28.35 18.144 -53.658
28.728 18.144 -53.712
29.106 18.144 -53.763
29.484 18.144 -53.766
29.862 18.144 -53.871
30.24 18.144 -53.889
30.618 18.144 -53.895
30.996 18.144 -53.886
31.374 18.144 -53.823
31.752 18.144 -53.802
32.13 18.144 -53.736
32.508 18.144 -53.787
15.12 18.522 -53.76
15.498 18.522 -53.796
15.876 18.522 -53.856
16.254 18.522 -53.904
16.632 18.522 -53.886
17.01 18.522 -53.883
17.388 18.522 -53.856
17.766 18.522 -53.856
18.144 18.522 -53.874
18.522 18.522 -53.904
18.9 18.522 -53.97
19.278 18.522 -53.835
19.656 18.522 -53.778
20.034 18.522 -53.781
20.412 18.522 -53.769
20.79 18.522 -53.715
21.168 18.522 -53.706
21.546 18.522 -53.76
21.924 18.522 -53.802
22.302 18.522 -53.823
22.68 18.522 -53.817
23.058 18.522 -53.769
23.436 18.522 -53.82
23.814 18.522 -53.868
24.192 18.522 -53.883
24.57 18.522 -54.072
28.35 18.522 -54.177
28.728 18.522 -54.183
29.106 18.522 -53.886
29.484 18.522 -53.763
29.862 18.522 -53.799
30.24 18.522 -53.817
30.618 18.522 -53.841
30.996 18.522 -53.853
31.374 18.522 -53.811
31.752 18.522 -53.808
32.13 18.522 -53.745
32.508 18.522 -53.748
15.12 18.9 -53.79
15.498 18.9 -53.832
15.876 18.9 -53.865
16.254 18.9 -53.871
16.632 18.9 -53.835
17.01 18.9 -53.889
17.388 18.9 -53.823
17.766 18.9 -53.811
18.144 18.9 -53.865
18.522 18.9 -53.946
18.9 18.9 -54.015
19.278 18.9 -53.922
19.656 18.9 -53.913
20.034 18.9 -53.874
20.412 18.9 -53.766
20.79 18.9 -53.679
21.168 18.9 -53.682
21.546 18.9 -53.718
21.924 18.9 -53.76
22.302 18.9 -53.805
22.68 18.9 -53.814
23.058 18.9 -53.763
23.436 18.9 -53.772
23.814 18.9 -53.808
24.192 18.9 -53.808
24.57 18.9 -53.988
29.862 18.9 -53.751
30.24 18.9 -53.745
30.618 18.9 -53.796
30.996 18.9 -53.829
31.374 18.9 -53.808
31.752 18.9 -53.769
32.13 18.9 -53.763
32.508 18.9 -53.766
32.886 18.9 -53.955
15.12 19.278 -53.823
15.498 19.278 -53.82
15.876 19.278 -53.865
16.254 19.278 -53.943
16.632 19.278 -53.964
17.01 19.278 -53.934
17.388 19.278 -53.901
17.766 19.278 -53.847
18.144 19.278 -53.799
18.522 19.278 -53.775
18.9 19.278 -53.793
19.278 19.278 -53.763
19.656 19.278 -53.757
20.034 19.278 -53.724
20.412 19.278 -53.721
20.79 19.278 -53.796
21.168 19.278 -53.775
21.546 19.278 -53.826
21.924 19.278 -53.781
22.302 19.278 -53.724
22.68 19.278 -53.742
23.058 19.278 -53.838
23.436 19.278 -53.781
23.814 19.278 -53.703
24.192 19.278 -53.625
24.57 19.278 -53.751
30.24 19.278 -53.715
30.618 19.278 -53.772
30.996 19.278 -53.832
31.374 19.278 -53.838
31.752 19.278 -53.733
32.13 19.278 -53.802
32.508 19.278 -53.829
32.886 19.278 -53.934
15.12 19.656 -53.796
15.498 19.656 -53.808
15.876 19.656 -53.856
16.254 19.656 -53.91
16.632 19.656 -53.94
17.01 19.656 -53.958
17.388 19.656 -53.934
17.766 19.656 -53.88
18.144 19.656 -53.832
18.522 19.656 -53.823
18.9 19.656 -53.871
19.278 19.656 -53.877
19.656 19.656 -53.757
20.034 19.656 -53.691
20.412 19.656 -53.712
20.79 19.656 -53.763
21.168 19.656 -53.814
21.546 19.656 -53.844
21.924 19.656 -53.835
22.302 19.656 -53.82
22.68 19.656 -53.814
23.058 19.656 -53.862
23.436 19.656 -53.805
23.814 19.656 -53.82
24.192 19.656 -53.811
24.57 19.656 -53.868
30.24 19.656 -53.742
30.618 19.656 -53.721
30.996 19.656 -53.694
31.374 19.656 -53.733
31.752 19.656 -53.853
32.13 19.656 -53.781
32.508 19.656 -53.739
32.886 19.656 -53.823
15.498 20.034 -53.799
15.876 20.034 -53.844
16.254 20.034 -53.892
16.632 20.034 -53.922
17.01 20.034 -53.958
17.388 20.034 -53.934
17.766 20.034 -53.898
18.144 20.034 -53.88
18.522 20.034 -53.871
18.9 20.034 -53.907
19.278 20.034 -53.943
19.656 20.034 -53.853
20.034 20.034 -53.784
20.412 20.034 -53.763
20.79 20.034 -53.769
21.168 20.034 -53.85
21.546 20.034 -53.85
21.924 20.034 -53.865
22.302 20.034 -53.877
22.68 20.034 -53.865
23.058 20.034 -53.859
23.436 20.034 -53.826
23.814 20.034 -53.865
24.192 20.034 -53.856
24.57 20.034 -53.856
30.24 20.034 -53.742
30.618 20.034 -53.793
30.996 20.034 -53.796
31.374 20.034 -53.781
31.752 20.034 -53.826
32.13 20.034 -53.799
32.508 20.034 -53.775
32.886 20.034 -53.754
15.498 20.412 -53.802
15.876 20.412 -53.847
16.254 20.412 -53.913
16.632 20.412 -53.952
17.01 20.412 -53.937
17.388 20.412 -53.91
17.766 20.412 -53.916
18.144 20.412 -53.931
18.522 20.412 -53.904
18.9 20.412 -53.88
19.278 20.412 -53.925
19.656 20.412 -53.964
20.034 20.412 -53.925
20.412 20.412 -53.844
20.79 20.412 -53.823
21.168 20.412 -53.874
21.546 20.412 -53.853
21.924 20.412 -53.874
22.302 20.412 -53.901
22.68 20.412 -53.886
23.058 20.412 -53.85
23.436 20.412 -53.853
23.814 20.412 -53.871
24.192 20.412 -53.835
24.57 20.412 -53.805
24.948 20.412 -53.961
25.326 20.412 -54.555
30.618 20.412 -53.85
30.996 20.412 -53.895
31.374 20.412 -53.844
31.752 20.412 -53.79
32.13 20.412 -53.814
32.508 20.412 -53.817
32.886 20.412 -53.742
15.498 20.79 -53.775
15.876 20.79 -53.811
16.254 20.79 -53.832
16.632 20.79 -53.907
17.01 20.79 -53.934
17.388 20.79 -53.982
17.766 20.79 -54.006
18.144 20.79 -53.988
18.522 20.79 -53.91
18.9 20.79 -53.808
19.278 20.79 -53.847
19.656 20.79 -53.838
20.034 20.79 -53.829
20.412 20.79 -53.844
20.79 20.79 -53.88
21.168 20.79 -53.802
21.546 20.79 -53.85
21.924 20.79 -53.886
22.302 20.79 -53.874
22.68 20.79 -53.838
23.058 20.79 -53.895
23.436 20.79 -53.904
23.814 20.79 -53.919
24.192 20.79 -53.898
24.57 20.79 -53.889
24.948 20.79 -54.006
25.326 20.79 -54.471
30.618 20.79 -53.811
30.996 20.79 -53.841
31.374 20.79 -53.847
31.752 20.79 -53.823
32.13 20.79 -53.787
32.508 20.79 -53.811
32.886 20.79 -53.79
15.498 21.168 -53.802
15.876 21.168 -53.823
16.254 21.168 -53.844
16.632 21.168 -53.919
17.01 21.168 -54.015
17.388 21.168 -54.003
17.766 21.168 -53.991
18.144 21.168 -53.949
18.522 21.168 -53.85
18.9 21.168 -53.778
19.278 21.168 -53.904
19.656 21.168 -53.886
20.034 21.168 -53.826
20.412 21.168 -53.805
20.79 21.168 -53.841
21.168 21.168 -53.838
21.546 21.168 -53.871
21.924 21.168 -53.886
22.302 21.168 -53.868
22.68 21.168 -53.829
23.058 21.168 -53.772
23.436 21.168 -53.763
23.814 21.168 -53.814
24.192 21.168 -53.895
24.57 21.168 -53.934
24.948 21.168 -53.967
25.326 21.168 -54.381
30.618 21.168 -53.805
30.996 21.168 -53.793
31.374 21.168 -53.793
31.752 21.168 -53.799
32.13 21.168 -53.832
32.508 21.168 -53.784
32.886 21.168 -53.721
33.264 21.168 -53.955
33.642 21.168 -54.783
15.498 21.546 -53.823
15.876 21.546 -53.85
16.254 21.546 -53.877
16.632 21.546 -53.928
17.01 21.546 -54.06
17.388 21.546 -53.994
17.766 21.546 -53.952
18.144 21.546 -53.925
18.522 21.546 -53.868
18.9 21.546 -53.844
19.278 21.546 -53.955
19.656 21.546 -53.955
20.034 21.546 -53.874
20.412 21.546 -53.808
20.79 21.546 -53.811
21.168 21.546 -53.82
21.546 21.546 -53.865
21.924 21.546 -53.889
22.302 21.546 -53.904
22.68 21.546 -53.898
23.058 21.546 -53.859
23.436 21.546 -53.844
23.814 21.546 -53.868
24.192 21.546 -53.916
24.57 21.546 -53.925
24.948 21.546 -53.928
25.326 21.546 -54.255
30.24 21.546 -53.88
30.618 21.546 -53.799
30.996 21.546 -53.796
31.374 21.546 -53.799
31.752 21.546 -53.778
32.13 21.546 -53.847
32.508 21.546 -53.835
32.886 21.546 -53.799
33.264 21.546 -53.967
33.642 21.546 -54.675
15.498 21.924 -53.778
15.876 21.924 -53.844
16.254 21.924 -53.883
16.632 21.924 -53.865
17.01 21.924 -53.916
17.388 21.924 -53.943
17.766 21.924 -53.961
18.144 21.924 -53.976
18.522 21.924 -54
18.9 21.924 -54
19.278 21.924 -53.961
19.656 21.924 -53.991
20.034 21.924 -53.964
20.412 21.924 -53.892
20.79 21.924 -53.838
21.168 21.924 -53.688
21.546 21.924 -53.802
21.924 21.924 -53.91
22.302 21.924 -53.985
22.68 21.924 -54.048
23.058 21.924 -54.156
23.436 21.924 -54.189
23.814 21.924 -54.126
24.192 21.924 -53.982
24.57 21.924 -53.871
24.948 21.924 -53.922
25.326 21.924 -54.078
29.484 21.924 -54.249
29.862 21.924 -53.718
30.24 21.924 -53.727
30.618 21.924 -53.79
30.996 21.924 -53.82
31.374 21.924 -53.811
31.752 21.924 -53.763
32.13 21.924 -53.835
32.508 21.924 -53.913
32.886 21.924 -53.913
33.264 21.924 -53.994
15.498 22.302 -53.928
15.876 22.302 -53.847
16.254 22.302 -53.889
16.632 22.302 -53.85
17.01 22.302 -53.844
17.388 22.302 -53.943
17.766 22.302 -53.982
18.144 22.302 -53.973
18.522 22.302 -53.952
18.9 22.302 -53.919
19.278 22.302 -53.928
19.656 22.302 -53.94
20.034 22.302 -53.865
20.412 22.302 -53.775
20.79 22.302 -53.784
21.168 22.302 -53.7
21.546 22.302 -53.82
21.924 22.302 -53.934
22.302 22.302 -53.931
22.68 22.302 -53.763
23.058 22.302 -53.508
23.436 22.302 -53.22
23.814 22.302 -53.466
24.192 22.302 -53.805
24.57 22.302 -53.961
24.948 22.302 -53.97
25.326 22.302 -54.048
29.484 22.302 -54.084
29.862 22.302 -53.778
30.24 22.302 -53.766
30.618 22.302 -53.793
30.996 22.302 -53.784
31.374 22.302 -53.727
31.752 22.302 -53.769
32.13 22.302 -53.802
32.508 22.302 -53.874
32.886 22.302 -53.868
33.264 22.302 -53.94
15.498 22.68 -54.018
15.876 22.68 -53.844
16.254 22.68 -53.862
16.632 22.68 -53.883
17.01 22.68 -53.871
17.388 22.68 -53.916
17.766 22.68 -53.949
18.144 22.68 -53.937
18.522 22.68 -53.892
18.9 22.68 -53.883
19.278 22.68 -53.901
19.656 22.68 -53.94
20.034 22.68 -53.877
20.412 22.68 -53.763
20.79 22.68 -53.733
21.168 22.68 -53.694
21.546 22.68 -53.79
21.924 22.68 -53.817
22.302 22.68 -53.742
22.68 22.68 -53.616
23.058 22.68 -53.541
23.436 22.68 -53.493
23.814 22.68 -53.529
24.192 22.68 -53.622
24.57 22.68 -53.832
24.948 22.68 -53.982
25.326 22.68 -54.033
25.704 22.68 -54.555
29.862 22.68 -53.877
30.24 22.68 -53.814
30.618 22.68 -53.826
30.996 22.68 -53.826
31.374 22.68 -53.841
31.752 22.68 -53.85
32.13 22.68 -53.838
32.508 22.68 -53.835
32.886 22.68 -53.823
33.264 22.68 -53.871
15.876 23.058 -53.838
16.254 23.058 -53.82
16.632 23.058 -53.916
17.01 23.058 -53.934
17.388 23.058 -53.898
17.766 23.058 -53.91
18.144 23.058 -53.907
18.522 23.058 -53.868
18.9 23.058 -53.91
19.278 23.058 -53.904
19.656 23.058 -53.949
20.034 23.058 -53.922
20.412 23.058 -53.829
20.79 23.058 -53.757
21.168 23.058 -53.694
21.546 23.058 -53.733
21.924 23.058 -53.688
22.302 23.058 -53.649
22.68 23.058 -53.655
23.058 23.058 -53.649
23.436 23.058 -53.685
23.814 23.058 -53.664
24.192 23.058 -53.616
24.57 23.058 -53.688
24.948 23.058 -53.937
25.326 23.058 -53.985
25.704 23.058 -54.387
30.618 23.058 -54
30.996 23.058 -53.844
31.374 23.058 -53.904
31.752 23.058 -53.904
32.13 23.058 -53.892
32.508 23.058 -53.865
32.886 23.058 -53.835
33.264 23.058 -53.823
15.876 23.436 -53.859
16.254 23.436 -53.82
16.632 23.436 -53.817
17.01 23.436 -53.91
17.388 23.436 -53.967
17.766 23.436 -53.976
18.144 23.436 -53.949
18.522 23.436 -53.934
18.9 23.436 -54.027
19.278 23.436 -53.955
19.656 23.436 -53.913
20.034 23.436 -53.928
20.412 23.436 -53.97
20.79 23.436 -53.925
21.168 23.436 -53.724
21.546 23.436 -53.688
21.924 23.436 -53.658
22.302 23.436 -53.76
22.68 23.436 -53.91
23.058 23.436 -53.865
23.436 23.436 -53.763
23.814 23.436 -53.841
24.192 23.436 -53.79
24.57 23.436 -53.721
24.948 23.436 -53.769
25.326 23.436 -53.811
25.704 23.436 -54.153
30.618 23.436 -54.3
30.996 23.436 -53.847
31.374 23.436 -53.877
31.752 23.436 -53.91
32.13 23.436 -53.937
32.508 23.436 -53.946
32.886 23.436 -53.886
33.264 23.436 -53.796
15.876 23.814 -53.853
16.254 23.814 -53.847
16.632 23.814 -53.847
17.01 23.814 -53.904
17.388 23.814 -53.97
17.766 23.814 -53.958
18.144 23.814 -53.913
18.522 23.814 -53.913
18.9 23.814 -54.018
19.278 23.814 -53.901
19.656 23.814 -53.91
20.034 23.814 -53.991
20.412 23.814 -54.051
20.79 23.814 -54.009
21.168 23.814 -53.97
21.546 23.814 -53.814
21.924 23.814 -53.799
22.302 23.814 -53.889
22.68 23.814 -53.955
23.058 23.814 -53.811
23.436 23.814 -53.79
23.814 23.814 -53.79
24.192 23.814 -53.79
24.57 23.814 -53.787
24.948 23.814 -53.763
25.326 23.814 -53.733
25.704 23.814 -54.066
30.618 23.814 -54.426
30.996 23.814 -54.315
31.374 23.814 -53.925
31.752 23.814 -53.871
32.13 23.814 -53.754
32.508 23.814 -53.736
32.886 23.814 -53.784
33.264 23.814 -53.805
15.876 24.192 -53.928
16.254 24.192 -53.862
16.632 24.192 -53.883
17.01 24.192 -53.937
17.388 24.192 -53.982
17.766 24.192 -53.973
18.144 24.192 -53.937
18.522 24.192 -53.916
18.9 24.192 -53.979
19.278 24.192 -53.898
19.656 24.192 -53.931
20.034 24.192 -54.003
20.412 24.192 -54.042
20.79 24.192 -53.997
21.168 24.192 -54.051
21.546 24.192 -53.862
21.924 24.192 -53.844
22.302 24.192 -53.955
22.68 24.192 -54.036
23.058 24.192 -53.928
23.436 24.192 -53.913
23.814 24.192 -53.88
24.192 24.192 -53.88
24.57 24.192 -53.859
24.948 24.192 -53.778
25.326 24.192 -53.781
25.704 24.192 -53.958
31.752 24.192 -53.772
32.13 24.192 -53.763
32.508 24.192 -53.778
32.886 24.192 -53.802
33.264 24.192 -53.805
16.254 24.57 -53.868
16.632 24.57 -53.901
17.01 24.57 -54.015
17.388 24.57 -54.024
17.766 24.57 -54.042
18.144 24.57 -54.036
18.522 24.57 -53.964
18.9 24.57 -53.94
19.278 24.57 -53.952
19.656 24.57 -53.949
20.034 24.57 -53.949
20.412 24.57 -53.925
20.79 24.57 -53.883
21.168 24.57 -53.907
21.546 24.57 -53.781
21.924 24.57 -53.766
22.302 24.57 -53.91
22.68 24.57 -54.123
23.058 24.57 -54.168
23.436 24.57 -54.102
23.814 24.57 -54.06
24.192 24.57 -53.994
24.57 24.57 -53.895
24.948 24.57 -53.85
25.326 24.57 -53.889
25.704 24.57 -53.892
26.082 24.57 -54.432
32.13 24.57 -53.814
32.508 24.57 -53.85
32.886 24.57 -53.847
33.264 24.57 -53.817
33.642 24.57 -53.811
34.02 24.57 -53.979
16.254 24.948 -53.871
16.632 24.948 -53.916
17.01 24.948 -54.051
17.388 24.948 -54.06
17.766 24.948 -54.081
18.144 24.948 -54.093
18.522 24.948 -54.039
18.9 24.948 -53.964
19.278 24.948 -54.027
19.656 24.948 -53.901
20.034 24.948 -53.841
20.412 24.948 -53.859
20.79 24.948 -53.793
21.168 24.948 -53.559
21.546 24.948 -53.556
21.924 24.948 -53.658
22.302 24.948 -53.76
22.68 24.948 -53.82
23.058 24.948 -53.838
23.436 24.948 -53.838
23.814 24.948 -53.934
24.192 24.948 -53.877
24.57 24.948 -53.841
24.948 24.948 -53.967
25.326 24.948 -54.036
25.704 24.948 -53.985
26.082 24.948 -54.408
32.13 24.948 -53.847
32.508 24.948 -53.829
32.886 24.948 -53.856
33.264 24.948 -53.865
33.642 24.948 -53.847
34.02 24.948 -53.772
16.254 25.326 -53.865
16.632 25.326 -53.922
17.01 25.326 -53.934
17.388 25.326 -54.018
17.766 25.326 -54.054
18.144 25.326 -54.057
18.522 25.326 -54.03
18.9 25.326 -53.97
19.278 25.326 -54.048
19.656 25.326 -54.012
20.034 25.326 -53.961
20.412 25.326 -53.907
20.79 25.326 -53.853
21.168 25.326 -53.766
21.546 25.326 -53.799
21.924 25.326 -53.823
22.302 25.326 -53.79
22.68 25.326 -53.757
23.058 25.326 -53.85
23.436 25.326 -53.886
23.814 25.326 -53.901
24.192 25.326 -53.874
24.57 25.326 -53.874
24.948 25.326 -53.943
25.326 25.326 -54.021
25.704 25.326 -54.03
26.082 25.326 -54.384
32.13 25.326 -53.958
32.508 25.326 -53.865
32.886 25.326 -53.841
33.264 25.326 -53.835
33.642 25.326 -53.832
34.02 25.326 -53.799
16.254 25.704 -53.853
16.632 25.704 -53.919
17.01 25.704 -53.853
17.388 25.704 -53.946
17.766 25.704 -53.994
18.144 25.704 -54.003
18.522 25.704 -54.012
18.9 25.704 -53.985
19.278 25.704 -53.994
19.656 25.704 -54.033
20.034 25.704 -54.012
20.412 25.704 -53.955
20.79 25.704 -53.937
21.168 25.704 -53.91
21.546 25.704 -53.955
21.924 25.704 -53.949
22.302 25.704 -53.871
22.68 25.704 -53.817
23.058 25.704 -53.895
23.436 25.704 -53.898
23.814 25.704 -53.889
24.192 25.704 -53.892
24.57 25.704 -53.892
24.948 25.704 -53.892
25.326 25.704 -53.955
25.704 25.704 -53.997
26.082 25.704 -54.315
32.13 25.704 -53.958
32.508 25.704 -53.907
32.886 25.704 -53.895
33.264 25.704 -53.871
33.642 25.704 -53.847
34.02 25.704 -53.823
16.254 26.082 -53.859
16.632 26.082 -53.91
17.01 26.082 -53.895
17.388 26.082 -53.892
17.766 26.082 -53.94
18.144 26.082 -54.003
18.522 26.082 -54.042
18.9 26.082 -54.018
19.278 26.082 -53.874
19.656 26.082 -53.859
20.034 26.082 -53.904
20.412 26.082 -53.97
20.79 26.082 -54.006
21.168 26.082 -53.961
21.546 26.082 -53.976
21.924 26.082 -53.982
22.302 26.082 -53.97
22.68 26.082 -53.949
23.058 26.082 -53.934
23.436 26.082 -53.844
23.814 26.082 -53.913
24.192 26.082 -53.937
24.57 26.082 -53.889
24.948 26.082 -53.841
25.326 26.082 -53.904
25.704 26.082 -53.889
26.082 26.082 -54.144
32.13 26.082 -53.895
32.508 26.082 -53.94
32.886 26.082 -53.976
33.264 26.082 -53.937
33.642 26.082 -53.895
34.02 26.082 -53.844
16.254 26.46 -53.91
16.632 26.46 -53.832
17.01 26.46 -53.874
17.388 26.46 -53.889
17.766 26.46 -53.952
18.144 26.46 -53.997
18.522 26.46 -53.976
18.9 26.46 -54.009
19.278 26.46 -54.009
19.656 26.46 -53.97
20.034 26.46 -53.934
20.412 26.46 -53.937
20.79 26.46 -53.985
21.168 26.46 -53.892
21.546 26.46 -53.916
21.924 26.46 -53.904
22.302 26.46 -53.889
22.68 26.46 -53.895
23.058 26.46 -53.916
23.436 26.46 -53.898
23.814 26.46 -53.913
24.192 26.46 -53.916
24.57 26.46 -53.901
24.948 26.46 -53.877
25.326 26.46 -53.949
25.704 26.46 -53.955
26.082 26.46 -54.135
32.13 26.46 -53.925
32.508 26.46 -53.916
32.886 26.46 -53.946
33.264 26.46 -53.922
33.642 26.46 -53.964
34.02 26.46 -53.844
34.398 26.46 -53.748
16.254 26.838 -53.94
16.632 26.838 -53.832
17.01 26.838 -53.865
17.388 26.838 -53.94
17.766 26.838 -53.997
18.144 26.838 -54.006
18.522 26.838 -53.982
18.9 26.838 -54.03
19.278 26.838 -54.039
19.656 26.838 -54.021
20.034 26.838 -53.991
20.412 26.838 -53.958
20.79 26.838 -53.958
21.168 26.838 -53.844
21.546 26.838 -53.871
21.924 26.838 -53.844
22.302 26.838 -53.835
22.68 26.838 -53.877
23.058 26.838 -53.913
23.436 26.838 -53.898
23.814 26.838 -53.874
24.192 26.838 -53.88
24.57 26.838 -53.892
24.948 26.838 -53.886
25.326 26.838 -53.898
25.704 26.838 -53.889
26.082 26.838 -54
26.46 26.838 -54.411
32.13 26.838 -53.88
32.508 26.838 -53.895
32.886 26.838 -53.952
33.264 26.838 -53.982
33.642 26.838 -54.018
34.02 26.838 -53.871
34.398 26.838 -53.901
16.254 27.216 -53.997
16.632 27.216 -53.862
17.01 27.216 -53.85
17.388 27.216 -53.982
17.766 27.216 -54.024
18.144 27.216 -54.012
18.522 27.216 -54.018
18.9 27.216 -54.06
19.278 27.216 -53.997
19.656 27.216 -54.027
20.034 27.216 -54.03
20.412 27.216 -53.994
20.79 27.216 -53.949
21.168 27.216 -53.799
21.546 27.216 -53.829
21.924 27.216 -53.811
22.302 27.216 -53.826
22.68 27.216 -53.883
23.058 27.216 -53.907
23.436 27.216 -53.859
23.814 27.216 -53.832
24.192 27.216 -53.844
24.57 27.216 -53.874
24.948 27.216 -53.88
25.326 27.216 -53.853
25.704 27.216 -53.826
26.082 27.216 -53.88
26.46 27.216 -54.294
31.374 27.216 -54.318
31.752 27.216 -53.904
32.13 27.216 -53.877
32.508 27.216 -53.898
32.886 27.216 -53.958
33.264 27.216 -54.03
33.642 27.216 -54.066
34.02 27.216 -53.958
34.398 27.216 -54.03
16.254 27.594 -54.327
16.632 27.594 -53.859
17.01 27.594 -53.796
17.388 27.594 -53.877
17.766 27.594 -53.898
18.144 27.594 -53.916
18.522 27.594 -53.985
18.9 27.594 -54.039
19.278 27.594 -53.985
19.656 27.594 -53.985
20.034 27.594 -53.994
20.412 27.594 -54.003
20.79 27.594 -53.985
21.168 27.594 -53.745
21.546 27.594 -53.772
21.924 27.594 -53.832
22.302 27.594 -53.889
22.68 27.594 -53.907
23.058 27.594 -53.856
23.436 27.594 -53.802
23.814 27.594 -53.802
24.192 27.594 -53.835
24.57 27.594 -53.859
24.948 27.594 -53.859
25.326 27.594 -53.883
25.704 27.594 -53.865
26.082 27.594 -53.916
26.46 27.594 -54.279
31.374 27.594 -54.207
31.752 27.594 -53.967
32.13 27.594 -53.952
32.508 27.594 -53.934
32.886 27.594 -53.952
33.264 27.594 -54.018
33.642 27.594 -54.102
34.02 27.594 -54.102
34.398 27.594 -54.12
16.632 27.972 -53.91
17.01 27.972 -53.889
17.388 27.972 -53.844
17.766 27.972 -53.934
18.144 27.972 -54.027
18.522 27.972 -54.027
18.9 27.972 -53.982
19.278 27.972 -53.997
19.656 27.972 -54.06
20.034 27.972 -54.096
20.412 27.972 -54.054
20.79 27.972 -53.913
21.168 27.972 -53.859
21.546 27.972 -53.832
21.924 27.972 -53.802
22.302 27.972 -53.826
22.68 27.972 -53.88
23.058 27.972 -53.838
23.436 27.972 -53.82
23.814 27.972 -53.832
24.192 27.972 -53.847
24.57 27.972 -53.862
24.948 27.972 -53.877
25.326 27.972 -53.865
25.704 27.972 -53.874
26.082 27.972 -53.892
26.46 27.972 -54.153
31.374 27.972 -53.952
31.752 27.972 -53.961
32.13 27.972 -53.856
32.508 27.972 -53.802
32.886 27.972 -53.853
33.264 27.972 -53.925
33.642 27.972 -53.892
34.02 27.972 -54.072
34.398 27.972 -54.153
16.632 28.35 -53.937
17.01 28.35 -53.937
17.388 28.35 -53.868
17.766 28.35 -53.979
18.144 28.35 -54.093
18.522 28.35 -54.054
18.9 28.35 -54
19.278 28.35 -54.03
19.656 28.35 -54.078
20.034 28.35 -54.105
20.412 28.35 -54.057
20.79 28.35 -53.946
21.168 28.35 -53.919
21.546 28.35 -53.823
21.924 28.35 -53.784
22.302 28.35 -53.799
22.68 28.35 -53.823
23.058 28.35 -53.808
23.436 28.35 -53.808
23.814 28.35 -53.838
24.192 28.35 -53.841
24.57 28.35 -53.82
24.948 28.35 -53.811
25.326 28.35 -53.829
25.704 28.35 -53.853
26.082 28.35 -53.868
26.46 28.35 -54.003
30.996 28.35 -54.057
31.374 28.35 -53.844
31.752 28.35 -53.904
32.13 28.35 -53.847
32.508 28.35 -53.91
32.886 28.35 -53.988
33.264 28.35 -54
33.642 28.35 -53.946
34.02 28.35 -54.045
34.398 28.35 -54.072
16.632 28.728 -53.919
17.01 28.728 -53.922
17.388 28.728 -53.919
17.766 28.728 -54
18.144 28.728 -54.06
18.522 28.728 -54.039
18.9 28.728 -54.072
19.278 28.728 -54.06
19.656 28.728 -54.027
20.034 28.728 -54.003
20.412 28.728 -54.003
20.79 28.728 -54.006
21.168 28.728 -53.91
21.546 28.728 -53.772
21.924 28.728 -53.775
22.302 28.728 -53.793
22.68 28.728 -53.784
23.058 28.728 -53.793
23.436 28.728 -53.787
23.814 28.728 -53.823
24.192 28.728 -53.814
24.57 28.728 -53.769
24.948 28.728 -53.751
25.326 28.728 -53.805
25.704 28.728 -53.814
26.082 28.728 -53.841
26.46 28.728 -53.886
26.838 28.728 -54.162
30.996 28.728 -54.048
31.374 28.728 -53.829
31.752 28.728 -53.898
32.13 28.728 -53.967
32.508 28.728 -54.069
32.886 28.728 -54.126
33.264 28.728 -54.105
33.642 28.728 -54.039
34.02 28.728 -54.042
34.398 28.728 -53.958
