# .PCD v0.7 - Point Cloud Data file format
VERSION 0.7
FIELDS x y z
SIZE 4 4 4
TYPE F F F
COUNT 1 1 1
WIDTH 1844
HEIGHT 1
VIEWPOINT 0 0 0 1 0 0 0
POINTS 1844
DATA ascii
3.78 -17.766 -52.218
4.158 -17.766 -52.287
4.536 -17.766 -52.278
4.914 -17.766 -52.245
5.292 -17.766 -52.206
5.67 -17.766 -52.161
6.048 -17.766 -52.095
6.426 -17.766 -52.098
6.804 -17.766 -52.056
7.182 -17.766 -52.065
13.608 -17.766 -52.161
13.986 -17.766 -52.068
14.364 -17.766 -52.2
14.742 -17.766 -52.296
15.12 -17.766 -52.311
15.498 -17.766 -52.356
15.876 -17.766 -52.431
16.254 -17.766 -52.47
16.632 -17.766 -52.41
17.01 -17.766 -52.398
17.388 -17.766 -52.401
17.766 -17.766 -52.332
18.144 -17.766 -52.317
18.522 -17.766 -52.353
18.9 -17.766 -52.404
19.278 -17.766 -52.344
19.656 -17.766 -52.248
-7.56 -17.388 -51.792
-7.182 -17.388 -51.819
-6.804 -17.388 -51.942
-6.426 -17.388 -52.008
-6.048 -17.388 -52.08
-5.67 -17.388 -52.197
-5.292 -17.388 -52.302
-4.914 -17.388 -52.251
-4.536 -17.388 -52.365
-4.158 -17.388 -52.53
-3.78 -17.388 -52.527
-3.402 -17.388 -52.464
-3.024 -17.388 -52.449
-2.646 -17.388 -52.404
-2.268 -17.388 -52.383
-1.89 -17.388 -52.308
-1.512 -17.388 -52.272
-1.134 -17.388 -52.269
-0.756 -17.388 -52.254
-0.378 -17.388 -52.173
0 -17.388 -52.179
0.378 -17.388 -52.197
0.756 -17.388 -52.206
1.134 -17.388 -52.194
1.512 -17.388 -52.17
1.89 -17.388 -52.185
2.268 -17.388 -52.209
2.646 -17.388 -52.218
3.024 -17.388 -52.26
3.402 -17.388 -52.329
3.78 -17.388 -52.344
4.158 -17.388 -52.299
4.536 -17.388 -52.305
4.914 -17.388 -52.329
5.292 -17.388 -52.284
5.67 -17.388 -52.152
6.048 -17.388 -52.101
6.426 -17.388 -52.095
6.804 -17.388 -52.041
12.852 -17.388 -52.842
13.23 -17.388 -52.281
13.608 -17.388 -52.104
13.986 -17.388 -52.161
14.364 -17.388 -52.248
14.742 -17.388 -52.338
15.12 -17.388 -52.305
15.498 -17.388 -52.389
15.876 -17.388 -52.503
16.254 -17.388 -52.539
16.632 -17.388 -52.377
17.01 -17.388 -52.269
17.388 -17.388 -52.269
17.766 -17.388 -52.239
18.144 -17.388 -52.299
18.522 -17.388 -52.401
18.9 -17.388 -52.365
19.278 -17.388 -52.353
-7.56 -17.01 -51.816
-7.182 -17.01 -51.858
-6.804 -17.01 -51.837
-6.426 -17.01 -51.975
-6.048 -17.01 -52.092
-5.67 -17.01 -52.167
-5.292 -17.01 -52.206
-4.914 -17.01 -52.242
-4.536 -17.01 -52.41
-4.158 -17.01 -52.443
-3.78 -17.01 -52.383
-3.402 -17.01 -52.344
-3.024 -17.01 -52.362
-2.646 -17.01 -52.239
-2.268 -17.01 -52.173
-1.89 -17.01 -52.149
-1.512 -17.01 -52.137
-1.134 -17.01 -52.14
-0.756 -17.01 -52.191
-0.378 -17.01 -52.296
0 -17.01 -52.287
0.378 -17.01 -52.257
0.756 -17.01 -52.251
1.134 -17.01 -52.239
1.512 -17.01 -52.158
1.89 -17.01 -52.173
2.268 -17.01 -52.257
2.646 -17.01 -52.251
3.024 -17.01 -52.284
3.402 -17.01 -52.359
3.78 -17.01 -52.26
4.158 -17.01 -52.269
4.536 -17.01 -52.263
4.914 -17.01 -52.224
5.292 -17.01 -52.161
5.67 -17.01 -52.107
6.048 -17.01 -52.137
6.426 -17.01 -52.032
6.804 -17.01 -52.029
12.096 -17.01 -54.42
12.852 -17.01 -52.251
13.23 -17.01 -52.128
13.608 -17.01 -52.164
13.986 -17.01 -52.233
14.364 -17.01 -52.275
14.742 -17.01 -52.326
15.12 -17.01 -52.329
15.498 -17.01 -52.38
15.876 -17.01 -52.446
16.254 -17.01 -52.536
16.632 -17.01 -52.65
17.01 -17.01 -52.698
17.388 -17.01 -52.656
17.766 -17.01 -52.596
18.144 -17.01 -52.488
18.522 -17.01 -52.362
18.9 -17.01 -52.308
19.278 -17.01 -52.422
-7.56 -16.632 -51.801
-7.182 -16.632 -51.897
-6.804 -16.632 -51.897
-6.426 -16.632 -51.99
-6.048 -16.632 -52.059
-5.67 -16.632 -52.113
-5.292 -16.632 -52.188
-4.914 -16.632 -52.257
-4.536 -16.632 -52.26
-4.158 -16.632 -52.266
-3.78 -16.632 -52.251
-3.402 -16.632 -52.23
-3.024 -16.632 -52.266
-2.646 -16.632 -52.347
-2.268 -16.632 -52.278
-1.89 -16.632 -52.2
-1.512 -16.632 -52.134
-1.134 -16.632 -52.128
-0.756 -16.632 -52.221
-0.378 -16.632 -52.233
0 -16.632 -52.212
0.378 -16.632 -52.161
0.756 -16.632 -52.149
1.134 -16.632 -52.176
1.512 -16.632 -52.158
1.89 -16.632 -52.113
2.268 -16.632 -52.131
2.646 -16.632 -52.149
3.024 -16.632 -52.185
3.402 -16.632 -52.221
3.78 -16.632 -52.26
4.158 -16.632 -52.26
4.536 -16.632 -52.281
4.914 -16.632 -52.269
5.292 -16.632 -52.194
5.67 -16.632 -52.068
6.048 -16.632 -51.948
6.426 -16.632 -51.936
6.804 -16.632 -53.121
12.096 -16.632 -53.181
12.474 -16.632 -52.413
12.852 -16.632 -52.161
13.23 -16.632 -52.143
13.608 -16.632 -52.197
13.986 -16.632 -52.257
14.364 -16.632 -52.305
14.742 -16.632 -52.374
15.12 -16.632 -52.377
15.498 -16.632 -52.434
15.876 -16.632 -52.521
16.254 -16.632 -52.578
16.632 -16.632 -52.557
17.01 -16.632 -52.584
17.388 -16.632 -52.575
17.766 -16.632 -52.536
18.144 -16.632 -52.479
18.522 -16.632 -52.407
18.9 -16.632 -52.344
19.278 -16.632 -52.503
-7.182 -16.254 -51.906
-6.804 -16.254 -51.987
-6.426 -16.254 -52.011
-6.048 -16.254 -52.029
-5.67 -16.254 -52.089
-5.292 -16.254 -52.194
-4.914 -16.254 -52.272
-4.536 -16.254 -52.14
-4.158 -16.254 -52.134
-3.78 -16.254 -52.158
-3.402 -16.254 -52.164
-3.024 -16.254 -52.209
-2.646 -16.254 -52.359
-2.268 -16.254 -52.332
-1.89 -16.254 -52.269
-1.512 -16.254 -52.158
-1.134 -16.254 -52.101
-0.756 -16.254 -52.167
-0.378 -16.254 -52.095
0 -16.254 -52.092
0.378 -16.254 -52.065
0.756 -16.254 -52.044
1.134 -16.254 -52.047
1.512 -16.254 -52.08
1.89 -16.254 -52.152
2.268 -16.254 -52.221
2.646 -16.254 -52.194
3.024 -16.254 -52.107
3.402 -16.254 -52.089
3.78 -16.254 -52.182
4.158 -16.254 -52.251
4.536 -16.254 -52.278
4.914 -16.254 -52.254
5.292 -16.254 -52.188
5.67 -16.254 -52.062
6.048 -16.254 -51.894
6.426 -16.254 -51.921
12.096 -16.254 -52.449
12.474 -16.254 -52.161
12.852 -16.254 -52.095
13.23 -16.254 -52.158
13.608 -16.254 -52.215
13.986 -16.254 -52.26
14.364 -16.254 -52.314
14.742 -16.254 -52.395
15.12 -16.254 -52.425
15.498 -16.254 -52.446
15.876 -16.254 -52.542
16.254 -16.254 -52.62
16.632 -16.254 -52.512
17.01 -16.254 -52.41
17.388 -16.254 -52.515
17.766 -16.254 -52.497
18.144 -16.254 -52.398
18.522 -16.254 -52.329
18.9 -16.254 -52.359
-7.182 -15.876 -51.858
-6.804 -15.876 -51.972
-6.426 -15.876 -51.984
-6.048 -15.876 -52.05
-5.67 -15.876 -52.137
-5.292 -15.876 -52.197
-4.914 -15.876 -52.248
-4.536 -15.876 -52.197
-4.158 -15.876 -52.131
-3.78 -15.876 -52.137
-3.402 -15.876 -52.191
-3.024 -15.876 -52.23
-2.646 -15.876 -52.203
-2.268 -15.876 -52.224
-1.89 -15.876 -52.248
-1.512 -15.876 -52.122
-1.134 -15.876 -51.99
-0.756 -15.876 -51.993
-0.378 -15.876 -51.915
0 -15.876 -51.987
0.378 -15.876 -52.053
1.134 -15.876 -51.888
1.512 -15.876 -51.909
3.024 -15.876 -52.074
3.402 -15.876 -51.972
3.78 -15.876 -52.026
4.158 -15.876 -52.224
4.536 -15.876 -52.224
4.914 -15.876 -52.17
5.292 -15.876 -52.128
5.67 -15.876 -52.089
11.718 -15.876 -52.305
12.096 -15.876 -52.149
12.474 -15.876 -52.122
12.852 -15.876 -52.08
13.23 -15.876 -52.185
13.608 -15.876 -52.242
13.986 -15.876 -52.281
14.364 -15.876 -52.353
14.742 -15.876 -52.413
15.12 -15.876 -52.458
15.498 -15.876 -52.461
15.876 -15.876 -52.539
16.254 -15.876 -52.608
16.632 -15.876 -52.506
17.01 -15.876 -52.299
17.388 -15.876 -52.437
17.766 -15.876 -52.419
18.144 -15.876 -52.308
18.522 -15.876 -52.323
18.9 -15.876 -52.722
-7.182 -15.498 -51.837
-6.804 -15.498 -51.87
-6.426 -15.498 -51.969
-6.048 -15.498 -52.014
-5.67 -15.498 -52.053
-5.292 -15.498 -52.113
-4.914 -15.498 -52.104
-4.536 -15.498 -52.074
-4.158 -15.498 -52.08
-3.78 -15.498 -52.188
-3.402 -15.498 -52.224
-3.024 -15.498 -52.116
-2.646 -15.498 -52.044
-2.268 -15.498 -51.906
-1.89 -15.498 -51.861
-1.512 -15.498 -51.774
-1.134 -15.498 -51.804
-0.756 -15.498 -52.119
-0.378 -15.498 -52.446
0 -15.498 -52.488
0.378 -15.498 -52.521
3.024 -15.498 -53.043
3.402 -15.498 -52.596
3.78 -15.498 -52.017
4.158 -15.498 -52.062
4.536 -15.498 -52.038
4.914 -15.498 -52.044
5.292 -15.498 -52.059
5.67 -15.498 -52.023
11.718 -15.498 -52.053
12.096 -15.498 -52.071
12.474 -15.498 -52.131
12.852 -15.498 -52.227
13.23 -15.498 -52.266
13.608 -15.498 -52.329
13.986 -15.498 -52.416
14.364 -15.498 -52.479
14.742 -15.498 -52.44
15.12 -15.498 -52.461
15.498 -15.498 -52.527
15.876 -15.498 -52.533
16.254 -15.498 -52.512
16.632 -15.498 -52.545
17.01 -15.498 -52.374
17.388 -15.498 -52.302
17.766 -15.498 -52.26
18.144 -15.498 -52.239
18.522 -15.498 -52.608
-7.182 -15.12 -51.801
-6.804 -15.12 -51.891
-6.426 -15.12 -51.987
-6.048 -15.12 -52.02
-5.67 -15.12 -52.062
-5.292 -15.12 -52.143
-4.914 -15.12 -52.179
-4.536 -15.12 -52.083
-4.158 -15.12 -52.047
-3.78 -15.12 -52.092
-3.402 -15.12 -52.098
-3.024 -15.12 -51.933
-2.646 -15.12 -51.915
-2.268 -15.12 -52.026
0.378 -15.12 -52.623
3.024 -15.12 -53.397
3.402 -15.12 -53.088
3.78 -15.12 -52.374
4.158 -15.12 -52.077
4.536 -15.12 -51.996
4.914 -15.12 -51.972
5.292 -15.12 -52.005
5.67 -15.12 -52.053
11.34 -15.12 -52.317
11.718 -15.12 -52.044
12.096 -15.12 -52.116
12.474 -15.12 -52.167
12.852 -15.12 -52.251
13.23 -15.12 -52.257
13.608 -15.12 -52.32
13.986 -15.12 -52.41
14.364 -15.12 -52.464
14.742 -15.12 -52.458
15.12 -15.12 -52.539
15.498 -15.12 -52.542
15.876 -15.12 -52.542
16.254 -15.12 -52.572
16.632 -15.12 -52.458
17.01 -15.12 -52.377
17.388 -15.12 -52.275
17.766 -15.12 -52.239
-6.426 -14.742 -51.999
-6.048 -14.742 -52.044
-5.67 -14.742 -52.104
-5.292 -14.742 -52.191
-4.914 -14.742 -52.272
-4.536 -14.742 -52.14
-4.158 -14.742 -52.014
-3.78 -14.742 -51.951
-3.402 -14.742 -51.942
-3.024 -14.742 -51.804
0.378 -14.742 -52.911
0.756 -14.742 -53.571
1.134 -14.742 -53.637
1.512 -14.742 -53.7
1.89 -14.742 -53.619
2.268 -14.742 -53.562
2.646 -14.742 -53.556
3.024 -14.742 -53.523
3.402 -14.742 -53.304
3.78 -14.742 -52.719
4.158 -14.742 -52.176
4.536 -14.742 -52.017
4.914 -14.742 -51.954
5.292 -14.742 -51.99
5.67 -14.742 -52.092
10.962 -14.742 -52.5
11.34 -14.742 -52.164
11.718 -14.742 -52.095
12.096 -14.742 -52.17
12.474 -14.742 -52.224
12.852 -14.742 -52.269
13.23 -14.742 -52.266
13.608 -14.742 -52.338
13.986 -14.742 -52.413
14.364 -14.742 -52.437
14.742 -14.742 -52.467
15.12 -14.742 -52.515
15.498 -14.742 -52.491
15.876 -14.742 -52.473
16.254 -14.742 -52.473
16.632 -14.742 -52.305
17.01 -14.742 -52.272
17.388 -14.742 -52.224
-6.426 -14.364 -51.93
-6.048 -14.364 -52.026
-5.67 -14.364 -52.113
-5.292 -14.364 -52.158
-4.914 -14.364 -52.161
-4.536 -14.364 -52.062
-4.158 -14.364 -51.933
-3.78 -14.364 -51.897
-3.402 -14.364 -51.954
-3.024 -14.364 -52.029
-1.134 -14.364 -53.904
-0.756 -14.364 -53.79
-0.378 -14.364 -53.721
0 -14.364 -53.934
0.378 -14.364 -53.781
0.756 -14.364 -53.568
1.134 -14.364 -53.427
1.512 -14.364 -53.397
1.89 -14.364 -53.337
2.268 -14.364 -53.343
2.646 -14.364 -53.4
3.024 -14.364 -53.445
3.402 -14.364 -53.334
3.78 -14.364 -52.86
4.158 -14.364 -52.284
4.536 -14.364 -52.038
4.914 -14.364 -52.011
5.292 -14.364 -52.059
5.67 -14.364 -52.074
6.048 -14.364 -52.05
10.584 -14.364 -52.968
10.962 -14.364 -52.194
11.34 -14.364 -52.107
11.718 -14.364 -52.188
12.096 -14.364 -52.191
12.474 -14.364 -52.281
12.852 -14.364 -52.293
13.23 -14.364 -52.308
13.608 -14.364 -52.389
13.986 -14.364 -52.443
14.364 -14.364 -52.419
14.742 -14.364 -52.482
15.12 -14.364 -52.443
15.498 -14.364 -52.404
15.876 -14.364 -52.347
16.254 -14.364 -52.245
16.632 -14.364 -52.098
17.01 -14.364 -52.098
17.388 -14.364 -52.152
-6.426 -13.986 -51.852
-6.048 -13.986 -51.918
-5.67 -13.986 -51.987
-5.292 -13.986 -52.035
-4.914 -13.986 -52.05
-4.536 -13.986 -51.957
-4.158 -13.986 -51.894
-3.78 -13.986 -51.9
-3.402 -13.986 -52.05
-3.024 -13.986 -52.404
-1.134 -13.986 -53.601
-0.756 -13.986 -53.376
-0.378 -13.986 -53.364
0 -13.986 -53.409
0.378 -13.986 -53.388
0.756 -13.986 -53.406
1.134 -13.986 -53.481
1.512 -13.986 -53.445
1.89 -13.986 -53.43
2.268 -13.986 -53.388
2.646 -13.986 -53.379
3.024 -13.986 -53.415
3.402 -13.986 -53.382
3.78 -13.986 -53.001
4.158 -13.986 -52.251
4.536 -13.986 -52.071
4.914 -13.986 -52.068
5.292 -13.986 -52.071
5.67 -13.986 -52.023
6.048 -13.986 -51.984
10.584 -13.986 -52.56
10.962 -13.986 -52.158
11.34 -13.986 -52.122
11.718 -13.986 -52.203
12.096 -13.986 -52.242
12.474 -13.986 -52.233
12.852 -13.986 -52.266
13.23 -13.986 -52.326
13.608 -13.986 -52.419
13.986 -13.986 -52.494
14.364 -13.986 -52.53
14.742 -13.986 -52.551
15.12 -13.986 -52.428
15.498 -13.986 -52.371
15.876 -13.986 -52.29
16.254 -13.986 -52.245
16.632 -13.986 -52.278
17.01 -13.986 -52.134
17.388 -13.986 -52.383
-7.182 -13.608 -54.339
-6.804 -13.608 -52.077
-6.426 -13.608 -51.837
-6.048 -13.608 -51.879
-5.67 -13.608 -51.933
-5.292 -13.608 -51.987
-4.914 -13.608 -52.026
-4.536 -13.608 -51.978
-4.158 -13.608 -51.93
-3.78 -13.608 -52.056
-3.402 -13.608 -52.446
-3.024 -13.608 -53.025
-2.646 -13.608 -53.439
-2.268 -13.608 -53.538
-1.89 -13.608 -53.547
-1.512 -13.608 -53.493
-1.134 -13.608 -53.412
-0.756 -13.608 -53.31
-0.378 -13.608 -53.331
0 -13.608 -53.22
0.378 -13.608 -53.223
0.756 -13.608 -53.301
1.134 -13.608 -53.388
1.512 -13.608 -53.364
1.89 -13.608 -53.37
2.268 -13.608 -53.436
2.646 -13.608 -53.439
3.024 -13.608 -53.433
3.402 -13.608 -53.385
3.78 -13.608 -53.049
4.158 -13.608 -52.26
4.536 -13.608 -52.098
4.914 -13.608 -52.077
5.292 -13.608 -52.071
5.67 -13.608 -52.047
6.048 -13.608 -51.999
10.206 -13.608 -54.525
10.584 -13.608 -52.341
10.962 -13.608 -52.149
11.34 -13.608 -52.194
11.718 -13.608 -52.248
12.096 -13.608 -52.245
12.474 -13.608 -52.218
12.852 -13.608 -52.305
13.23 -13.608 -52.365
13.608 -13.608 -52.416
13.986 -13.608 -52.461
14.364 -13.608 -52.5
14.742 -13.608 -52.455
15.12 -13.608 -52.476
15.498 -13.608 -52.41
15.876 -13.608 -52.305
16.254 -13.608 -52.212
16.632 -13.608 -52.17
-6.048 -13.23 -51.912
-5.67 -13.23 -51.96
-5.292 -13.23 -52.011
-4.914 -13.23 -52.062
-4.536 -13.23 -52.089
-4.158 -13.23 -52.023
-3.78 -13.23 -52.392
-3.402 -13.23 -53.106
-3.024 -13.23 -53.55
-2.646 -13.23 -53.598
-2.268 -13.23 -53.451
-1.89 -13.23 -53.409
-1.512 -13.23 -53.349
-1.134 -13.23 -53.322
-0.756 -13.23 -53.382
-0.378 -13.23 -53.385
0 -13.23 -53.211
0.378 -13.23 -53.205
0.756 -13.23 -53.259
1.134 -13.23 -53.292
1.512 -13.23 -53.289
1.89 -13.23 -53.313
2.268 -13.23 -53.466
2.646 -13.23 -53.484
3.024 -13.23 -53.445
3.402 -13.23 -53.361
3.78 -13.23 -53.082
4.158 -13.23 -52.287
4.536 -13.23 -52.119
4.914 -13.23 -52.062
5.292 -13.23 -52.053
5.67 -13.23 -52.083
6.048 -13.23 -52.05
6.426 -13.23 -51.915
10.206 -13.23 -53.763
10.584 -13.23 -52.224
10.962 -13.23 -52.137
11.34 -13.23 -52.218
11.718 -13.23 -52.26
12.096 -13.23 -52.245
12.474 -13.23 -52.254
12.852 -13.23 -52.332
13.23 -13.23 -52.38
13.608 -13.23 -52.422
13.986 -13.23 -52.467
14.364 -13.23 -52.494
14.742 -13.23 -52.407
15.12 -13.23 -52.464
15.498 -13.23 -52.422
15.876 -13.23 -52.326
16.254 -13.23 -52.206
-6.048 -12.852 -51.93
-5.67 -12.852 -51.96
-5.292 -12.852 -51.984
-4.914 -12.852 -51.978
-4.536 -12.852 -52.089
-4.158 -12.852 -52.068
-3.78 -12.852 -52.707
-3.402 -12.852 -53.304
-3.024 -12.852 -53.565
-2.646 -12.852 -53.517
-2.268 -12.852 -53.433
-1.89 -12.852 -53.385
-1.512 -12.852 -53.376
-1.134 -12.852 -53.388
-0.756 -12.852 -53.364
-0.378 -12.852 -53.265
0 -12.852 -53.25
0.378 -12.852 -53.298
0.756 -12.852 -53.325
1.134 -12.852 -53.319
1.512 -12.852 -53.352
1.89 -12.852 -53.406
2.268 -12.852 -53.457
2.646 -12.852 -53.451
3.024 -12.852 -53.403
3.402 -12.852 -53.316
3.78 -12.852 -53.139
4.158 -12.852 -52.305
4.536 -12.852 -52.131
4.914 -12.852 -52.065
5.292 -12.852 -52.023
5.67 -12.852 -52.02
6.048 -12.852 -52.071
6.426 -12.852 -51.918
10.206 -12.852 -52.578
10.584 -12.852 -52.116
10.962 -12.852 -52.083
11.34 -12.852 -52.119
11.718 -12.852 -52.191
12.096 -12.852 -52.287
12.474 -12.852 -52.359
12.852 -12.852 -52.308
13.23 -12.852 -52.356
13.608 -12.852 -52.461
13.986 -12.852 -52.542
14.364 -12.852 -52.539
14.742 -12.852 -52.437
15.12 -12.852 -52.386
15.498 -12.852 -52.374
15.876 -12.852 -52.329
-6.048 -12.474 -51.954
-5.67 -12.474 -51.966
-5.292 -12.474 -51.951
-4.914 -12.474 -51.96
-4.536 -12.474 -52.014
-4.158 -12.474 -52.263
-3.78 -12.474 -53.04
-3.402 -12.474 -53.463
-3.024 -12.474 -53.529
-2.646 -12.474 -53.445
-2.268 -12.474 -53.391
-1.89 -12.474 -53.358
-1.512 -12.474 -53.364
-1.134 -12.474 -53.376
-0.756 -12.474 -53.31
-0.378 -12.474 -53.106
0 -12.474 -53.13
0.378 -12.474 -53.307
0.756 -12.474 -53.412
1.134 -12.474 -53.409
1.512 -12.474 -53.397
1.89 -12.474 -53.43
2.268 -12.474 -53.43
2.646 -12.474 -53.43
3.024 -12.474 -53.442
3.402 -12.474 -53.43
3.78 -12.474 -53.25
4.158 -12.474 -52.404
4.536 -12.474 -52.092
4.914 -12.474 -52.02
5.292 -12.474 -52.023
5.67 -12.474 -52.044
6.048 -12.474 -52.074
6.426 -12.474 -52.074
10.206 -12.474 -52.401
10.584 -12.474 -52.164
10.962 -12.474 -52.14
11.34 -12.474 -52.182
11.718 -12.474 -52.242
12.096 -12.474 -52.287
12.474 -12.474 -52.332
12.852 -12.474 -52.404
13.23 -12.474 -52.467
13.608 -12.474 -52.518
13.986 -12.474 -52.521
14.364 -12.474 -52.464
14.742 -12.474 -52.425
15.12 -12.474 -52.344
15.498 -12.474 -52.335
15.876 -12.474 -52.314
-6.426 -12.096 -52.374
-6.048 -12.096 -51.945
-5.67 -12.096 -51.963
-5.292 -12.096 -51.93
-4.914 -12.096 -51.936
-4.536 -12.096 -51.945
-4.158 -12.096 -52.419
-3.78 -12.096 -53.172
-3.402 -12.096 -53.472
-3.024 -12.096 -53.448
-2.646 -12.096 -53.406
-2.268 -12.096 -53.367
-1.89 -12.096 -53.4
-1.512 -12.096 -53.424
-1.134 -12.096 -53.421
-0.756 -12.096 -53.373
-0.378 -12.096 -53.286
0 -12.096 -53.31
0.378 -12.096 -53.409
0.756 -12.096 -53.454
1.134 -12.096 -53.448
1.512 -12.096 -53.454
1.89 -12.096 -53.442
2.268 -12.096 -53.451
2.646 -12.096 -53.46
3.024 -12.096 -53.472
3.402 -12.096 -53.457
3.78 -12.096 -53.301
4.158 -12.096 -52.467
4.536 -12.096 -52.116
4.914 -12.096 -52.029
5.292 -12.096 -52.041
5.67 -12.096 -52.053
6.048 -12.096 -52.071
6.426 -12.096 -52.089
10.206 -12.096 -52.323
10.584 -12.096 -52.161
10.962 -12.096 -52.17
11.34 -12.096 -52.218
11.718 -12.096 -52.269
12.096 -12.096 -52.32
12.474 -12.096 -52.383
12.852 -12.096 -52.479
13.23 -12.096 -52.479
13.608 -12.096 -52.452
13.986 -12.096 -52.443
14.364 -12.096 -52.437
14.742 -12.096 -52.413
15.12 -12.096 -52.386
15.498 -12.096 -52.38
15.876 -12.096 -52.371
-6.426 -11.718 -52.332
-6.048 -11.718 -51.885
-5.67 -11.718 -51.948
-5.292 -11.718 -51.921
-4.914 -11.718 -51.858
-4.536 -11.718 -51.912
-4.158 -11.718 -52.425
-3.78 -11.718 -53.052
-3.402 -11.718 -53.379
-3.024 -11.718 -53.379
-2.646 -11.718 -53.397
-2.268 -11.718 -53.364
-1.89 -11.718 -53.475
-1.512 -11.718 -53.508
-1.134 -11.718 -53.472
-0.756 -11.718 -53.46
-0.378 -11.718 -53.571
0 -11.718 -53.55
0.378 -11.718 -53.502
0.756 -11.718 -53.457
1.134 -11.718 -53.448
1.512 -11.718 -53.493
1.89 -11.718 -53.448
2.268 -11.718 -53.487
2.646 -11.718 -53.511
3.024 -11.718 -53.502
3.402 -11.718 -53.463
3.78 -11.718 -53.34
4.158 -11.718 -52.521
4.536 -11.718 -52.191
4.914 -11.718 -52.092
5.292 -11.718 -52.062
5.67 -11.718 -52.038
6.048 -11.718 -52.062
6.426 -11.718 -52.011
6.804 -11.718 -53.337
10.206 -11.718 -52.272
10.584 -11.718 -52.125
10.962 -11.718 -52.17
11.34 -11.718 -52.221
11.718 -11.718 -52.281
12.096 -11.718 -52.353
12.474 -11.718 -52.431
12.852 -11.718 -52.485
13.23 -11.718 -52.455
13.608 -11.718 -52.386
13.986 -11.718 -52.377
14.364 -11.718 -52.437
14.742 -11.718 -52.386
15.12 -11.718 -52.404
15.498 -11.718 -52.404
15.876 -11.718 -52.485
16.254 -11.718 -52.68
-5.67 -11.34 -51.921
-5.292 -11.34 -51.924
-4.914 -11.34 -51.924
-4.536 -11.34 -51.972
-4.158 -11.34 -52.389
-3.78 -11.34 -52.968
-3.402 -11.34 -53.373
-3.024 -11.34 -53.484
-2.646 -11.34 -53.409
-2.268 -11.34 -53.406
-1.89 -11.34 -53.448
-1.512 -11.34 -53.397
-1.134 -11.34 -53.331
-0.756 -11.34 -53.352
-0.378 -11.34 -53.433
0 -11.34 -53.367
0.378 -11.34 -53.4
0.756 -11.34 -53.436
1.134 -11.34 -53.445
1.512 -11.34 -53.451
1.89 -11.34 -53.484
2.268 -11.34 -53.49
2.646 -11.34 -53.523
3.024 -11.34 -53.568
3.402 -11.34 -53.571
3.78 -11.34 -53.436
4.158 -11.34 -52.644
4.536 -11.34 -52.215
4.914 -11.34 -52.089
5.292 -11.34 -52.071
5.67 -11.34 -52.059
6.048 -11.34 -52.062
6.426 -11.34 -52.032
6.804 -11.34 -53.337
10.206 -11.34 -52.257
10.584 -11.34 -52.146
10.962 -11.34 -52.116
11.34 -11.34 -52.182
11.718 -11.34 -52.281
12.096 -11.34 -52.344
12.474 -11.34 -52.335
12.852 -11.34 -52.377
13.23 -11.34 -52.443
13.608 -11.34 -52.434
13.986 -11.34 -52.407
14.364 -11.34 -52.407
14.742 -11.34 -52.32
15.12 -11.34 -52.29
15.498 -11.34 -52.281
15.876 -11.34 -52.614
16.254 -11.34 -53.22
-5.67 -10.962 -51.909
-5.292 -10.962 -51.939
-4.914 -10.962 -51.939
-4.536 -10.962 -52.002
-4.158 -10.962 -52.449
-3.78 -10.962 -52.977
-3.402 -10.962 -53.31
-3.024 -10.962 -53.361
-2.646 -10.962 -53.289
-2.268 -10.962 -53.343
-1.89 -10.962 -53.385
-1.512 -10.962 -53.376
-1.134 -10.962 -53.343
-0.756 -10.962 -53.349
-0.378 -10.962 -53.427
0 -10.962 -53.397
0.378 -10.962 -53.412
0.756 -10.962 -53.427
1.134 -10.962 -53.433
1.512 -10.962 -53.457
1.89 -10.962 -53.505
2.268 -10.962 -53.505
2.646 -10.962 -53.502
3.024 -10.962 -53.475
3.402 -10.962 -53.46
3.78 -10.962 -53.463
4.158 -10.962 -52.698
4.536 -10.962 -52.209
4.914 -10.962 -52.065
5.292 -10.962 -52.08
5.67 -10.962 -52.089
6.048 -10.962 -52.02
6.426 -10.962 -52.074
6.804 -10.962 -53.319
10.206 -10.962 -52.143
10.584 -10.962 -52.134
10.962 -10.962 -52.2
11.34 -10.962 -52.257
11.718 -10.962 -52.32
12.096 -10.962 -52.368
12.474 -10.962 -52.338
12.852 -10.962 -52.365
13.23 -10.962 -52.416
13.608 -10.962 -52.434
13.986 -10.962 -52.41
14.364 -10.962 -52.368
14.742 -10.962 -52.365
15.12 -10.962 -52.335
15.498 -10.962 -52.32
15.876 -10.962 -52.707
16.254 -10.962 -53.364
-6.048 -10.584 -52.194
-5.67 -10.584 -51.906
-5.292 -10.584 -51.942
-4.914 -10.584 -51.93
-4.536 -10.584 -52.038
-4.158 -10.584 -52.521
-3.78 -10.584 -53.013
-3.402 -10.584 -53.295
-3.024 -10.584 -53.322
-2.646 -10.584 -53.277
-2.268 -10.584 -53.349
-1.89 -10.584 -53.388
-1.512 -10.584 -53.4
-1.134 -10.584 -53.397
-0.756 -10.584 -53.397
-0.378 -10.584 -53.427
0 -10.584 -53.436
0.378 -10.584 -53.442
0.756 -10.584 -53.433
1.134 -10.584 -53.424
1.512 -10.584 -53.442
1.89 -10.584 -53.502
2.268 -10.584 -53.511
2.646 -10.584 -53.49
3.024 -10.584 -53.463
3.402 -10.584 -53.451
3.78 -10.584 -53.466
4.158 -10.584 -52.791
4.536 -10.584 -52.248
4.914 -10.584 -52.074
5.292 -10.584 -52.095
5.67 -10.584 -52.101
6.048 -10.584 -51.993
6.426 -10.584 -52.095
6.804 -10.584 -53.307
10.584 -10.584 -52.191
10.962 -10.584 -52.239
11.34 -10.584 -52.281
11.718 -10.584 -52.329
12.096 -10.584 -52.371
12.474 -10.584 -52.344
12.852 -10.584 -52.377
13.23 -10.584 -52.413
13.608 -10.584 -52.434
13.986 -10.584 -52.437
14.364 -10.584 -52.434
14.742 -10.584 -52.428
15.12 -10.584 -52.38
15.498 -10.584 -52.347
15.876 -10.584 -52.719
-6.048 -10.206 -52.278
-5.67 -10.206 -51.885
-5.292 -10.206 -51.873
-4.914 -10.206 -51.957
-4.536 -10.206 -52.128
-4.158 -10.206 -52.521
-3.78 -10.206 -53.037
-3.402 -10.206 -53.355
-3.024 -10.206 -53.421
-2.646 -10.206 -53.412
-2.268 -10.206 -53.451
-1.89 -10.206 -53.469
-1.512 -10.206 -53.46
-1.134 -10.206 -53.454
-0.756 -10.206 -53.463
-0.378 -10.206 -53.403
0 -10.206 -53.448
0.378 -10.206 -53.472
0.756 -10.206 -53.46
1.134 -10.206 -53.424
1.512 -10.206 -53.409
1.89 -10.206 -53.466
2.268 -10.206 -53.493
2.646 -10.206 -53.508
3.024 -10.206 -53.535
3.402 -10.206 -53.55
3.78 -10.206 -53.445
4.158 -10.206 -52.92
4.536 -10.206 -52.35
4.914 -10.206 -52.14
5.292 -10.206 -52.113
5.67 -10.206 -52.077
6.048 -10.206 -52.014
6.426 -10.206 -52.08
6.804 -10.206 -53.217
10.584 -10.206 -52.314
10.962 -10.206 -52.203
11.34 -10.206 -52.239
11.718 -10.206 -52.299
12.096 -10.206 -52.347
12.474 -10.206 -52.353
12.852 -10.206 -52.413
13.23 -10.206 -52.44
13.608 -10.206 -52.449
13.986 -10.206 -52.482
14.364 -10.206 -52.521
14.742 -10.206 -52.449
15.12 -10.206 -52.389
15.498 -10.206 -52.35
-5.67 -9.82799999999999 -51.921
-5.292 -9.82799999999999 -51.975
-4.914 -9.82799999999999 -52.005
-4.536 -9.82799999999999 -52.068
-4.158 -9.82799999999999 -52.449
-3.78 -9.82799999999999 -53.013
-3.402 -9.82799999999999 -53.289
-3.024 -9.82799999999999 -53.367
-2.646 -9.82799999999999 -53.433
-2.268 -9.82799999999999 -53.454
-1.89 -9.82799999999999 -53.439
-1.512 -9.82799999999999 -53.454
-1.134 -9.82799999999999 -53.478
-0.756 -9.82799999999999 -53.472
-0.378 -9.82799999999999 -53.448
0 -9.82799999999999 -53.475
0.378 -9.82799999999999 -53.526
0.756 -9.82799999999999 -53.52
1.134 -9.82799999999999 -53.478
1.512 -9.82799999999999 -53.475
1.89 -9.82799999999999 -53.487
2.268 -9.82799999999999 -53.445
2.646 -9.82799999999999 -53.505
3.024 -9.82799999999999 -53.562
3.402 -9.82799999999999 -53.565
3.78 -9.82799999999999 -53.514
4.158 -9.82799999999999 -52.908
4.536 -9.82799999999999 -52.329
4.914 -9.82799999999999 -52.14
5.292 -9.82799999999999 -52.125
5.67 -9.82799999999999 -52.083
6.048 -9.82799999999999 -52.086
6.426 -9.82799999999999 -52.092
6.804 -9.82799999999999 -52.542
10.584 -9.82799999999999 -52.224
10.962 -9.82799999999999 -52.167
11.34 -9.82799999999999 -52.239
11.718 -9.82799999999999 -52.326
12.096 -9.82799999999999 -52.395
12.474 -9.82799999999999 -52.398
12.852 -9.82799999999999 -52.443
13.23 -9.82799999999999 -52.476
13.608 -9.82799999999999 -52.5
13.986 -9.82799999999999 -52.467
14.364 -9.82799999999999 -52.377
14.742 -9.82799999999999 -52.296
15.12 -9.82799999999999 -52.305
15.498 -9.82799999999999 -52.413
-5.67 -9.44999999999999 -51.93
-5.292 -9.44999999999999 -51.969
-4.914 -9.44999999999999 -51.993
-4.536 -9.44999999999999 -52.026
-4.158 -9.44999999999999 -52.38
-3.78 -9.44999999999999 -52.962
-3.402 -9.44999999999999 -53.283
-3.024 -9.44999999999999 -53.418
-2.646 -9.44999999999999 -53.421
-2.268 -9.44999999999999 -53.427
-1.89 -9.44999999999999 -53.403
-1.512 -9.44999999999999 -53.415
-1.134 -9.44999999999999 -53.454
-0.756 -9.44999999999999 -53.469
-0.378 -9.44999999999999 -53.457
0 -9.44999999999999 -53.463
0.378 -9.44999999999999 -53.484
0.756 -9.44999999999999 -53.496
1.134 -9.44999999999999 -53.499
1.512 -9.44999999999999 -53.523
1.89 -9.44999999999999 -53.496
2.268 -9.44999999999999 -53.439
2.646 -9.44999999999999 -53.496
3.024 -9.44999999999999 -53.571
3.402 -9.44999999999999 -53.589
3.78 -9.44999999999999 -53.526
4.158 -9.44999999999999 -53.022
4.536 -9.44999999999999 -52.371
4.914 -9.44999999999999 -52.143
5.292 -9.44999999999999 -52.128
5.67 -9.44999999999999 -52.095
6.048 -9.44999999999999 -52.104
6.426 -9.44999999999999 -52.107
6.804 -9.44999999999999 -52.602
10.584 -9.44999999999999 -52.281
10.962 -9.44999999999999 -52.212
11.34 -9.44999999999999 -52.257
11.718 -9.44999999999999 -52.293
12.096 -9.44999999999999 -52.314
12.474 -9.44999999999999 -52.356
12.852 -9.44999999999999 -52.425
13.23 -9.44999999999999 -52.461
13.608 -9.44999999999999 -52.464
13.986 -9.44999999999999 -52.413
14.364 -9.44999999999999 -52.326
14.742 -9.44999999999999 -52.299
15.12 -9.44999999999999 -52.302
15.498 -9.44999999999999 -52.374
-5.67 -9.07199999999999 -51.906
-5.292 -9.07199999999999 -51.891
-4.914 -9.07199999999999 -51.96
-4.536 -9.07199999999999 -52.02
-4.158 -9.07199999999999 -52.299
-3.78 -9.07199999999999 -52.833
-3.402 -9.07199999999999 -53.25
-3.024 -9.07199999999999 -53.502
-2.646 -9.07199999999999 -53.421
-2.268 -9.07199999999999 -53.442
-1.89 -9.07199999999999 -53.427
-1.512 -9.07199999999999 -53.418
-1.134 -9.07199999999999 -53.439
-0.756 -9.07199999999999 -53.469
-0.378 -9.07199999999999 -53.469
0 -9.07199999999999 -53.454
0.378 -9.07199999999999 -53.454
0.756 -9.07199999999999 -53.475
1.134 -9.07199999999999 -53.508
1.512 -9.07199999999999 -53.532
1.89 -9.07199999999999 -53.511
2.268 -9.07199999999999 -53.466
2.646 -9.07199999999999 -53.508
3.024 -9.07199999999999 -53.571
3.402 -9.07199999999999 -53.592
3.78 -9.07199999999999 -53.532
4.158 -9.07199999999999 -53.172
4.536 -9.07199999999999 -52.446
4.914 -9.07199999999999 -52.152
5.292 -9.07199999999999 -52.122
5.67 -9.07199999999999 -52.122
6.048 -9.07199999999999 -52.116
6.426 -9.07199999999999 -52.119
6.804 -9.07199999999999 -52.395
10.584 -9.07199999999999 -52.317
10.962 -9.07199999999999 -52.251
11.34 -9.07199999999999 -52.278
11.718 -9.07199999999999 -52.284
12.096 -9.07199999999999 -52.29
12.474 -9.07199999999999 -52.359
12.852 -9.07199999999999 -52.416
13.23 -9.07199999999999 -52.443
13.608 -9.07199999999999 -52.431
13.986 -9.07199999999999 -52.398
14.364 -9.07199999999999 -52.368
14.742 -9.07199999999999 -52.341
15.12 -9.07199999999999 -52.317
15.498 -9.07199999999999 -52.347
15.876 -9.07199999999999 -52.734
-5.67 -8.69399999999999 -51.9
-5.292 -8.69399999999999 -51.999
-4.914 -8.69399999999999 -52.071
-4.536 -8.69399999999999 -52.089
-4.158 -8.69399999999999 -52.131
-3.78 -8.69399999999999 -52.47
-3.402 -8.69399999999999 -53.007
-3.024 -8.69399999999999 -53.472
-2.646 -8.69399999999999 -53.508
-2.268 -8.69399999999999 -53.574
-1.89 -8.69399999999999 -53.574
-1.512 -8.69399999999999 -53.541
-1.134 -8.69399999999999 -53.511
-0.756 -8.69399999999999 -53.496
-0.378 -8.69399999999999 -53.532
0 -8.69399999999999 -53.484
0.378 -8.69399999999999 -53.505
0.756 -8.69399999999999 -53.523
1.134 -8.69399999999999 -53.511
1.512 -8.69399999999999 -53.481
1.89 -8.69399999999999 -53.547
2.268 -8.69399999999999 -53.523
2.646 -8.69399999999999 -53.562
3.024 -8.69399999999999 -53.583
3.402 -8.69399999999999 -53.559
3.78 -8.69399999999999 -53.562
4.158 -8.69399999999999 -53.31
4.536 -8.69399999999999 -52.533
4.914 -8.69399999999999 -52.164
5.292 -8.69399999999999 -52.128
5.67 -8.69399999999999 -52.17
6.048 -8.69399999999999 -52.182
6.426 -8.69399999999999 -52.119
6.804 -8.69399999999999 -52.062
10.584 -8.69399999999999 -52.245
10.962 -8.69399999999999 -52.227
11.34 -8.69399999999999 -52.296
11.718 -8.69399999999999 -52.353
12.096 -8.69399999999999 -52.404
12.474 -8.69399999999999 -52.455
12.852 -8.69399999999999 -52.443
13.23 -8.69399999999999 -52.44
13.608 -8.69399999999999 -52.431
13.986 -8.69399999999999 -52.455
14.364 -8.69399999999999 -52.494
14.742 -8.69399999999999 -52.38
15.12 -8.69399999999999 -52.332
15.498 -8.69399999999999 -52.38
15.876 -8.69399999999999 -52.818
-5.67 -8.31599999999999 -51.999
-5.292 -8.31599999999999 -51.96
-4.914 -8.31599999999999 -52.008
-4.536 -8.31599999999999 -51.99
-4.158 -8.31599999999999 -52.029
-3.78 -8.31599999999999 -52.404
-3.402 -8.31599999999999 -52.974
-3.024 -8.31599999999999 -53.373
-2.646 -8.31599999999999 -53.427
-2.268 -8.31599999999999 -53.49
-1.89 -8.31599999999999 -53.511
-1.512 -8.31599999999999 -53.499
-1.134 -8.31599999999999 -53.478
-0.756 -8.31599999999999 -53.478
-0.378 -8.31599999999999 -53.526
0 -8.31599999999999 -53.487
0.378 -8.31599999999999 -53.472
0.756 -8.31599999999999 -53.493
1.134 -8.31599999999999 -53.517
1.512 -8.31599999999999 -53.508
1.89 -8.31599999999999 -53.511
2.268 -8.31599999999999 -53.493
2.646 -8.31599999999999 -53.514
3.024 -8.31599999999999 -53.517
3.402 -8.31599999999999 -53.496
3.78 -8.31599999999999 -53.514
4.158 -8.31599999999999 -53.244
4.536 -8.31599999999999 -52.542
4.914 -8.31599999999999 -52.197
5.292 -8.31599999999999 -52.137
5.67 -8.31599999999999 -52.149
6.048 -8.31599999999999 -52.134
6.426 -8.31599999999999 -52.131
6.804 -8.31599999999999 -52.104
10.584 -8.31599999999999 -52.212
10.962 -8.31599999999999 -52.2
11.34 -8.31599999999999 -52.272
11.718 -8.31599999999999 -52.317
12.096 -8.31599999999999 -52.35
12.474 -8.31599999999999 -52.398
12.852 -8.31599999999999 -52.425
13.23 -8.31599999999999 -52.437
13.608 -8.31599999999999 -52.431
13.986 -8.31599999999999 -52.446
14.364 -8.31599999999999 -52.488
14.742 -8.31599999999999 -52.449
15.12 -8.31599999999999 -52.398
15.498 -8.31599999999999 -52.308
15.876 -8.31599999999999 -52.788
-5.292 -7.93799999999999 -51.897
-4.914 -7.93799999999999 -51.951
-4.536 -7.93799999999999 -51.933
-4.158 -7.93799999999999 -51.999
-3.78 -7.93799999999999 -52.341
-3.402 -7.93799999999999 -52.893
-3.024 -7.93799999999999 -53.274
-2.646 -7.93799999999999 -53.412
-2.268 -7.93799999999999 -53.442
-1.89 -7.93799999999999 -53.436
-1.512 -7.93799999999999 -53.421
-1.134 -7.93799999999999 -53.406
-0.756 -7.93799999999999 -53.415
-0.378 -7.93799999999999 -53.499
0 -7.93799999999999 -53.484
0.378 -7.93799999999999 -53.481
0.756 -7.93799999999999 -53.484
1.134 -7.93799999999999 -53.49
1.512 -7.93799999999999 -53.487
1.89 -7.93799999999999 -53.481
2.268 -7.93799999999999 -53.475
2.646 -7.93799999999999 -53.508
3.024 -7.93799999999999 -53.52
3.402 -7.93799999999999 -53.49
3.78 -7.93799999999999 -53.487
4.158 -7.93799999999999 -53.265
4.536 -7.93799999999999 -52.614
4.914 -7.93799999999999 -52.23
5.292 -7.93799999999999 -52.119
5.67 -7.93799999999999 -52.116
6.048 -7.93799999999999 -52.086
6.426 -7.93799999999999 -52.116
6.804 -7.93799999999999 -52.113
10.962 -7.93799999999999 -52.188
11.34 -7.93799999999999 -52.245
11.718 -7.93799999999999 -52.308
12.096 -7.93799999999999 -52.359
12.474 -7.93799999999999 -52.395
12.852 -7.93799999999999 -52.476
13.23 -7.93799999999999 -52.476
13.608 -7.93799999999999 -52.47
13.986 -7.93799999999999 -52.455
14.364 -7.93799999999999 -52.437
14.742 -7.93799999999999 -52.464
15.12 -7.93799999999999 -52.443
15.498 -7.93799999999999 -52.38
15.876 -7.93799999999999 -52.701
-5.292 -7.55999999999999 -51.858
-4.914 -7.55999999999999 -51.951
-4.536 -7.55999999999999 -51.984
-4.158 -7.55999999999999 -52.035
-3.78 -7.55999999999999 -52.191
-3.402 -7.55999999999999 -52.71
-3.024 -7.55999999999999 -53.187
-2.646 -7.55999999999999 -53.448
-2.268 -7.55999999999999 -53.427
-1.89 -7.55999999999999 -53.373
-1.512 -7.55999999999999 -53.346
-1.134 -7.55999999999999 -53.34
-0.756 -7.55999999999999 -53.358
-0.378 -7.55999999999999 -53.472
0 -7.55999999999999 -53.496
0.378 -7.55999999999999 -53.511
0.756 -7.55999999999999 -53.496
1.134 -7.55999999999999 -53.46
1.512 -7.55999999999999 -53.46
1.89 -7.55999999999999 -53.487
2.268 -7.55999999999999 -53.493
2.646 -7.55999999999999 -53.532
3.024 -7.55999999999999 -53.547
3.402 -7.55999999999999 -53.514
3.78 -7.55999999999999 -53.487
4.158 -7.55999999999999 -53.325
4.536 -7.55999999999999 -52.707
4.914 -7.55999999999999 -52.257
5.292 -7.55999999999999 -52.086
5.67 -7.55999999999999 -52.086
6.048 -7.55999999999999 -52.059
6.426 -7.55999999999999 -52.107
6.804 -7.55999999999999 -52.11
10.962 -7.55999999999999 -52.188
11.34 -7.55999999999999 -52.242
11.718 -7.55999999999999 -52.326
12.096 -7.55999999999999 -52.392
12.474 -7.55999999999999 -52.413
12.852 -7.55999999999999 -52.524
13.23 -7.55999999999999 -52.521
13.608 -7.55999999999999 -52.512
13.986 -7.55999999999999 -52.467
14.364 -7.55999999999999 -52.407
14.742 -7.55999999999999 -52.452
15.12 -7.55999999999999 -52.47
15.498 -7.55999999999999 -52.464
15.876 -7.55999999999999 -52.581
-5.292 -7.18199999999999 -51.927
-4.914 -7.18199999999999 -51.966
-4.536 -7.18199999999999 -52.035
-4.158 -7.18199999999999 -52.005
-3.78 -7.18199999999999 -52.11
-3.402 -7.18199999999999 -52.653
-3.024 -7.18199999999999 -53.145
-2.646 -7.18199999999999 -53.397
-2.268 -7.18199999999999 -53.394
-1.89 -7.18199999999999 -53.379
-1.512 -7.18199999999999 -53.367
-1.134 -7.18199999999999 -53.379
-0.756 -7.18199999999999 -53.424
-0.378 -7.18199999999999 -53.46
0 -7.18199999999999 -53.565
0.378 -7.18199999999999 -53.496
0.756 -7.18199999999999 -53.49
1.134 -7.18199999999999 -53.535
1.512 -7.18199999999999 -53.514
1.89 -7.18199999999999 -53.598
2.268 -7.18199999999999 -53.595
2.646 -7.18199999999999 -53.556
3.024 -7.18199999999999 -53.514
3.402 -7.18199999999999 -53.496
3.78 -7.18199999999999 -53.538
4.158 -7.18199999999999 -53.361
4.536 -7.18199999999999 -52.704
4.914 -7.18199999999999 -52.263
5.292 -7.18199999999999 -52.11
5.67 -7.18199999999999 -52.104
6.048 -7.18199999999999 -52.146
6.426 -7.18199999999999 -52.197
6.804 -7.18199999999999 -52.188
10.962 -7.18199999999999 -52.218
11.34 -7.18199999999999 -52.296
11.718 -7.18199999999999 -52.362
12.096 -7.18199999999999 -52.383
12.474 -7.18199999999999 -52.398
12.852 -7.18199999999999 -52.452
13.23 -7.18199999999999 -52.527
13.608 -7.18199999999999 -52.521
13.986 -7.18199999999999 -52.473
14.364 -7.18199999999999 -52.452
14.742 -7.18199999999999 -52.443
15.12 -7.18199999999999 -52.485
15.498 -7.18199999999999 -52.422
15.876 -7.18199999999999 -52.491
-5.292 -6.80399999999999 -52.02
-4.914 -6.80399999999999 -51.954
-4.536 -6.80399999999999 -52.005
-4.158 -6.80399999999999 -51.993
-3.78 -6.80399999999999 -52.041
-3.402 -6.80399999999999 -52.461
-3.024 -6.80399999999999 -53.016
-2.646 -6.80399999999999 -53.4
-2.268 -6.80399999999999 -53.427
-1.89 -6.80399999999999 -53.409
-1.512 -6.80399999999999 -53.436
-1.134 -6.80399999999999 -53.487
-0.756 -6.80399999999999 -53.517
-0.378 -6.80399999999999 -53.481
0 -6.80399999999999 -53.502
0.378 -6.80399999999999 -53.49
0.756 -6.80399999999999 -53.508
1.134 -6.80399999999999 -53.538
1.512 -6.80399999999999 -53.511
1.89 -6.80399999999999 -53.502
2.268 -6.80399999999999 -53.475
2.646 -6.80399999999999 -53.49
3.024 -6.80399999999999 -53.532
3.402 -6.80399999999999 -53.58
3.78 -6.80399999999999 -53.58
4.158 -6.80399999999999 -53.472
4.536 -6.80399999999999 -52.782
4.914 -6.80399999999999 -52.293
5.292 -6.80399999999999 -52.128
5.67 -6.80399999999999 -52.155
6.048 -6.80399999999999 -52.176
6.426 -6.80399999999999 -52.2
6.804 -6.80399999999999 -52.155
10.962 -6.80399999999999 -52.254
11.34 -6.80399999999999 -52.287
11.718 -6.80399999999999 -52.335
12.096 -6.80399999999999 -52.371
12.474 -6.80399999999999 -52.413
12.852 -6.80399999999999 -52.476
13.23 -6.80399999999999 -52.554
13.608 -6.80399999999999 -52.572
13.986 -6.80399999999999 -52.53
14.364 -6.80399999999999 -52.482
14.742 -6.80399999999999 -52.503
15.12 -6.80399999999999 -52.419
15.498 -6.80399999999999 -52.428
15.876 -6.80399999999999 -52.566
-5.292 -6.42599999999999 -52.581
-4.914 -6.42599999999999 -51.936
-4.536 -6.42599999999999 -51.963
-4.158 -6.42599999999999 -51.996
-3.78 -6.42599999999999 -52.005
-3.402 -6.42599999999999 -52.269
-3.024 -6.42599999999999 -52.857
-2.646 -6.42599999999999 -53.4
-2.268 -6.42599999999999 -53.466
-1.89 -6.42599999999999 -53.463
-1.512 -6.42599999999999 -53.466
-1.134 -6.42599999999999 -53.484
-0.756 -6.42599999999999 -53.499
-0.378 -6.42599999999999 -53.457
0 -6.42599999999999 -53.481
0.378 -6.42599999999999 -53.496
0.756 -6.42599999999999 -53.508
1.134 -6.42599999999999 -53.505
1.512 -6.42599999999999 -53.469
1.89 -6.42599999999999 -53.457
2.268 -6.42599999999999 -53.442
2.646 -6.42599999999999 -53.487
3.024 -6.42599999999999 -53.562
3.402 -6.42599999999999 -53.607
3.78 -6.42599999999999 -53.577
4.158 -6.42599999999999 -53.496
4.536 -6.42599999999999 -52.833
4.914 -6.42599999999999 -52.326
5.292 -6.42599999999999 -52.149
5.67 -6.42599999999999 -52.176
6.048 -6.42599999999999 -52.185
6.426 -6.42599999999999 -52.191
6.804 -6.42599999999999 -52.128
10.962 -6.42599999999999 -52.266
11.34 -6.42599999999999 -52.284
11.718 -6.42599999999999 -52.332
12.096 -6.42599999999999 -52.374
12.474 -6.42599999999999 -52.437
12.852 -6.42599999999999 -52.497
13.23 -6.42599999999999 -52.551
13.608 -6.42599999999999 -52.581
13.986 -6.42599999999999 -52.563
14.364 -6.42599999999999 -52.518
14.742 -6.42599999999999 -52.521
15.12 -6.42599999999999 -52.431
15.498 -6.42599999999999 -52.425
15.876 -6.42599999999999 -52.464
-5.292 -6.04799999999999 -53.931
-4.914 -6.04799999999999 -51.936
-4.536 -6.04799999999999 -51.963
-4.158 -6.04799999999999 -52.02
-3.78 -6.04799999999999 -52.026
-3.402 -6.04799999999999 -52.182
-3.024 -6.04799999999999 -52.71
-2.646 -6.04799999999999 -53.358
-2.268 -6.04799999999999 -53.463
-1.89 -6.04799999999999 -53.538
-1.512 -6.04799999999999 -53.439
-1.134 -6.04799999999999 -53.331
-0.756 -6.04799999999999 -53.361
-0.378 -6.04799999999999 -53.391
0 -6.04799999999999 -53.532
0.378 -6.04799999999999 -53.523
0.756 -6.04799999999999 -53.493
1.134 -6.04799999999999 -53.457
1.512 -6.04799999999999 -53.403
1.89 -6.04799999999999 -53.502
2.268 -6.04799999999999 -53.532
2.646 -6.04799999999999 -53.562
3.024 -6.04799999999999 -53.565
3.402 -6.04799999999999 -53.547
3.78 -6.04799999999999 -53.535
4.158 -6.04799999999999 -53.451
4.536 -6.04799999999999 -52.833
4.914 -6.04799999999999 -52.368
5.292 -6.04799999999999 -52.173
5.67 -6.04799999999999 -52.152
6.048 -6.04799999999999 -52.173
6.426 -6.04799999999999 -52.194
6.804 -6.04799999999999 -52.14
7.182 -6.04799999999999 -53.067
10.962 -6.04799999999999 -52.26
11.34 -6.04799999999999 -52.302
11.718 -6.04799999999999 -52.356
12.096 -6.04799999999999 -52.392
12.474 -6.04799999999999 -52.461
12.852 -6.04799999999999 -52.509
13.23 -6.04799999999999 -52.542
13.608 -6.04799999999999 -52.572
13.986 -6.04799999999999 -52.59
14.364 -6.04799999999999 -52.578
14.742 -6.04799999999999 -52.509
15.12 -6.04799999999999 -52.515
15.498 -6.04799999999999 -52.437
15.876 -6.04799999999999 -52.311
-5.292 -5.66999999999999 -53.889
-4.914 -5.66999999999999 -51.99
-4.536 -5.66999999999999 -52.026
-4.158 -5.66999999999999 -52.065
-3.78 -5.66999999999999 -52.062
-3.402 -5.66999999999999 -52.107
-3.024 -5.66999999999999 -52.44
-2.646 -5.66999999999999 -53.304
-2.268 -5.66999999999999 -53.517
-1.89 -5.66999999999999 -53.505
-1.512 -5.66999999999999 -53.427
-1.134 -5.66999999999999 -53.406
-0.756 -5.66999999999999 -53.487
-0.378 -5.66999999999999 -53.514
0 -5.66999999999999 -53.472
0.378 -5.66999999999999 -53.535
0.756 -5.66999999999999 -53.556
1.134 -5.66999999999999 -53.508
1.512 -5.66999999999999 -53.466
1.89 -5.66999999999999 -53.505
2.268 -5.66999999999999 -53.523
2.646 -5.66999999999999 -53.511
3.024 -5.66999999999999 -53.457
3.402 -5.66999999999999 -53.424
3.78 -5.66999999999999 -53.517
4.158 -5.66999999999999 -53.508
4.536 -5.66999999999999 -52.938
4.914 -5.66999999999999 -52.419
5.292 -5.66999999999999 -52.194
5.67 -5.66999999999999 -52.203
6.048 -5.66999999999999 -52.197
6.426 -5.66999999999999 -52.143
6.804 -5.66999999999999 -52.14
7.182 -5.66999999999999 -53.166
10.962 -5.66999999999999 -52.293
11.34 -5.66999999999999 -52.335
11.718 -5.66999999999999 -52.347
12.096 -5.66999999999999 -52.362
12.474 -5.66999999999999 -52.482
12.852 -5.66999999999999 -52.524
13.23 -5.66999999999999 -52.623
13.608 -5.66999999999999 -52.659
13.986 -5.66999999999999 -52.677
14.364 -5.66999999999999 -52.701
14.742 -5.66999999999999 -52.554
15.12 -5.66999999999999 -52.632
15.498 -5.66999999999999 -52.539
15.876 -5.66999999999999 -52.458
-5.292 -5.29199999999999 -53.919
-4.914 -5.29199999999999 -52.005
-4.536 -5.29199999999999 -52.038
-4.158 -5.29199999999999 -52.053
-3.78 -5.29199999999999 -52.062
-3.402 -5.29199999999999 -52.086
-3.024 -5.29199999999999 -52.38
-2.646 -5.29199999999999 -53.232
-2.268 -5.29199999999999 -53.478
-1.89 -5.29199999999999 -53.472
-1.512 -5.29199999999999 -53.502
-1.134 -5.29199999999999 -53.538
-0.756 -5.29199999999999 -53.529
-0.378 -5.29199999999999 -53.499
0 -5.29199999999999 -53.439
0.378 -5.29199999999999 -53.481
0.756 -5.29199999999999 -53.538
1.134 -5.29199999999999 -53.568
1.512 -5.29199999999999 -53.583
1.89 -5.29199999999999 -53.571
2.268 -5.29199999999999 -53.562
2.646 -5.29199999999999 -53.538
3.024 -5.29199999999999 -53.526
3.402 -5.29199999999999 -53.553
3.78 -5.29199999999999 -53.583
4.158 -5.29199999999999 -53.571
4.536 -5.29199999999999 -53.091
4.914 -5.29199999999999 -52.512
5.292 -5.29199999999999 -52.2
5.67 -5.29199999999999 -52.188
6.048 -5.29199999999999 -52.188
6.426 -5.29199999999999 -52.143
6.804 -5.29199999999999 -52.149
10.962 -5.29199999999999 -52.287
11.34 -5.29199999999999 -52.299
11.718 -5.29199999999999 -52.38
12.096 -5.29199999999999 -52.491
12.474 -5.29199999999999 -52.596
12.852 -5.29199999999999 -52.611
13.23 -5.29199999999999 -52.593
13.608 -5.29199999999999 -52.56
13.986 -5.29199999999999 -52.596
14.364 -5.29199999999999 -52.686
14.742 -5.29199999999999 -52.611
15.12 -5.29199999999999 -52.602
15.498 -5.29199999999999 -52.509
15.876 -5.29199999999999 -52.464
-4.158 -4.91399999999999 -52.02
-3.78 -4.91399999999999 -52.035
-3.402 -4.91399999999999 -52.083
-3.024 -4.91399999999999 -52.35
-2.646 -4.91399999999999 -53.046
-2.268 -4.91399999999999 -53.4
-1.89 -4.91399999999999 -53.46
-1.512 -4.91399999999999 -53.565
-1.134 -4.91399999999999 -53.595
-0.756 -4.91399999999999 -53.493
-0.378 -4.91399999999999 -53.457
0 -4.91399999999999 -53.445
0.378 -4.91399999999999 -53.475
0.756 -4.91399999999999 -53.538
1.134 -4.91399999999999 -53.604
1.512 -4.91399999999999 -53.64
1.89 -4.91399999999999 -53.613
2.268 -4.91399999999999 -53.589
2.646 -4.91399999999999 -53.58
3.024 -4.91399999999999 -53.607
3.402 -4.91399999999999 -53.628
3.78 -4.91399999999999 -53.55
4.158 -4.91399999999999 -53.583
4.536 -4.91399999999999 -53.202
4.914 -4.91399999999999 -52.596
5.292 -4.91399999999999 -52.203
5.67 -4.91399999999999 -52.167
6.048 -4.91399999999999 -52.179
6.426 -4.91399999999999 -52.185
6.804 -4.91399999999999 -52.158
10.962 -4.91399999999999 -52.287
11.34 -4.91399999999999 -52.305
11.718 -4.91399999999999 -52.431
12.096 -4.91399999999999 -52.575
12.474 -4.91399999999999 -52.65
12.852 -4.91399999999999 -52.659
13.23 -4.91399999999999 -52.602
13.608 -4.91399999999999 -52.593
13.986 -4.91399999999999 -52.623
14.364 -4.91399999999999 -52.665
14.742 -4.91399999999999 -52.653
15.12 -4.91399999999999 -52.599
15.498 -4.91399999999999 -52.521
15.876 -4.91399999999999 -52.473
-4.158 -4.53599999999999 -52.035
-3.78 -4.53599999999999 -52.014
-3.402 -4.53599999999999 -52.029
-3.024 -4.53599999999999 -52.185
-2.646 -4.53599999999999 -52.593
-2.268 -4.53599999999999 -53.319
-1.89 -4.53599999999999 -53.499
-1.512 -4.53599999999999 -53.502
-1.134 -4.53599999999999 -53.43
-0.756 -4.53599999999999 -53.388
-0.378 -4.53599999999999 -53.49
0 -4.53599999999999 -53.517
0.378 -4.53599999999999 -53.619
0.756 -4.53599999999999 -53.634
1.134 -4.53599999999999 -53.589
1.512 -4.53599999999999 -53.58
1.89 -4.53599999999999 -53.577
2.268 -4.53599999999999 -53.562
2.646 -4.53599999999999 -53.61
3.024 -4.53599999999999 -53.61
3.402 -4.53599999999999 -53.499
3.78 -4.53599999999999 -53.358
4.158 -4.53599999999999 -53.517
4.536 -4.53599999999999 -53.232
4.914 -4.53599999999999 -52.638
5.292 -4.53599999999999 -52.224
5.67 -4.53599999999999 -52.188
6.048 -4.53599999999999 -52.203
6.426 -4.53599999999999 -52.254
6.804 -4.53599999999999 -52.158
10.962 -4.53599999999999 -52.326
11.34 -4.53599999999999 -52.395
11.718 -4.53599999999999 -52.485
12.096 -4.53599999999999 -52.542
12.474 -4.53599999999999 -52.593
12.852 -4.53599999999999 -52.62
13.23 -4.53599999999999 -52.71
13.608 -4.53599999999999 -52.815
13.986 -4.53599999999999 -52.815
14.364 -4.53599999999999 -52.689
14.742 -4.53599999999999 -52.68
15.12 -4.53599999999999 -52.662
15.498 -4.53599999999999 -52.605
15.876 -4.53599999999999 -52.518
16.254 -4.53599999999999 -52.857
-4.158 -4.158 -52.008
-3.78 -4.158 -51.996
-3.402 -4.158 -52.02
-3.024 -4.158 -52.137
-2.646 -4.158 -52.425
-2.268 -4.158 -53.316
-1.89 -4.158 -53.556
-1.512 -4.158 -53.565
-1.134 -4.158 -53.535
-0.756 -4.158 -53.556
-0.378 -4.158 -53.556
0 -4.158 -53.514
0.378 -4.158 -53.526
0.756 -4.158 -53.517
1.134 -4.158 -53.505
1.512 -4.158 -53.52
1.89 -4.158 -53.559
2.268 -4.158 -53.592
2.646 -4.158 -53.61
3.024 -4.158 -53.622
3.402 -4.158 -53.607
3.78 -4.158 -53.523
4.158 -4.158 -53.538
4.536 -4.158 -53.223
4.914 -4.158 -52.659
5.292 -4.158 -52.257
5.67 -4.158 -52.185
6.048 -4.158 -52.215
6.426 -4.158 -52.257
6.804 -4.158 -52.221
7.182 -4.158 -52.23
10.962 -4.158 -52.248
11.34 -4.158 -52.335
11.718 -4.158 -52.437
12.096 -4.158 -52.503
12.474 -4.158 -52.53
12.852 -4.158 -52.602
13.23 -4.158 -52.722
13.608 -4.158 -52.785
13.986 -4.158 -52.755
14.364 -4.158 -52.686
14.742 -4.158 -52.725
15.12 -4.158 -52.668
15.498 -4.158 -52.605
15.876 -4.158 -52.542
16.254 -4.158 -52.893
-4.158 -3.78 -52.026
-3.78 -3.78 -52.041
-3.402 -3.78 -52.062
-3.024 -3.78 -52.14
-2.646 -3.78 -52.317
-2.268 -3.78 -53.256
-1.89 -3.78 -53.508
-1.512 -3.78 -53.568
-1.134 -3.78 -53.583
-0.756 -3.78 -53.604
-0.378 -3.78 -53.619
0 -3.78 -53.562
0.378 -3.78 -53.517
0.756 -3.78 -53.499
1.134 -3.78 -53.517
1.512 -3.78 -53.553
1.89 -3.78 -53.58
2.268 -3.78 -53.568
2.646 -3.78 -53.544
3.024 -3.78 -53.571
3.402 -3.78 -53.616
3.78 -3.78 -53.541
4.158 -3.78 -53.559
4.536 -3.78 -53.247
4.914 -3.78 -52.686
5.292 -3.78 -52.293
5.67 -3.78 -52.236
6.048 -3.78 -52.272
6.426 -3.78 -52.26
6.804 -3.78 -52.263
7.182 -3.78 -52.233
7.56 -3.78 -52.371
10.206 -3.78 -52.479
10.584 -3.78 -52.245
10.962 -3.78 -52.287
11.34 -3.78 -52.353
11.718 -3.78 -52.422
12.096 -3.78 -52.494
12.474 -3.78 -52.569
12.852 -3.78 -52.665
